-9.87752724 29.90460777 5.01708078 141 138 136
-9.69742775 29.96624184 5.03099680 164 156 144
-9.90182304 29.90856171 5.04207897 144 137 133
-9.80125618 29.93309975 5.02019310 153 142 123
-9.65985298 29.97541428 5.03189087 139 134 128
-9.74044228 30.01651955 5.05914307 131 128 121
-9.93060017 29.86913872 5.05301189 153 151 144
-9.90277863 29.89403152 5.01021385 118 115 104
-9.93022728 29.85771942 5.02552509 152 151 151
-9.79778671 29.91660500 5.01741791 156 155 150
-9.87718391 29.94991684 5.05091810 150 147 134
-9.71702957 29.98707581 5.03021002 136 133 120
-9.83223534 29.97397614 5.04975510 117 114 102
-9.77483845 30.00762558 5.06138611 152 147 135
-9.76140213 30.01777267 5.06112099 136 134 126
-9.81226921 29.97488022 5.04896498 113 105 95
-9.79126644 29.97359848 5.04806995 135 131 120
-9.77593613 29.98088837 5.04764795 133 128 117
-9.74594498 29.98221779 5.04754591 122 109 99
-9.72616196 29.98464775 5.04680586 122 115 104
-9.88792706 29.87415695 5.01122379 154 141 126
-9.81366539 29.91248512 5.01360607 153 158 168
-9.87133884 29.86941910 5.00498295 169 170 165
-9.71503925 30.01180840 5.06123114 144 140 129
-9.90322971 29.88203049 5.02075911 146 150 152
-9.82359600 30.02926636 5.06941509 178 176 173
-9.88898277 29.89154243 5.01935577 136 128 117
-9.85677624 29.89939690 5.01717377 140 136 126
-9.84077835 29.89514351 5.01748705 144 140 130
-9.91211319 29.86416245 5.01410484 142 142 136
-9.85209370 29.98957443 5.06620884 135 126 120
-9.89091969 29.92619133 5.03995514 132 116 87
-9.76692677 29.95591164 5.04115009 126 125 114
-9.75055790 29.96101189 5.04062414 148 147 138
-9.80913925 30.04273415 5.06594181 179 176 172
-9.82958317 29.91807556 5.01984310 156 153 140
-9.75870609 29.91637993 5.02776098 128 120 107
-9.89905930 29.84839630 5.00118208 236 233 228
-9.89607334 29.94548035 5.06894398 154 152 150
-9.73068714 30.02820969 5.06884623 169 167 158
-9.85621738 29.93758011 5.03342581 125 118 114
-9.80663967 29.91119576 5.03174686 133 133 129
-9.77484226 29.89733124 5.03005981 159 159 154
-9.74617290 29.92862129 5.03084898 126 123 112
-9.73633289 29.94296074 5.03084898 140 139 131
-9.72474194 29.95593452 5.03182507 146 141 132
-9.86278629 29.98558426 5.07739592 145 141 137
-9.84971428 29.91317558 5.02378798 139 137 123
-9.92180729 29.89674950 5.06863117 148 142 131
-9.91739655 29.89594078 5.03910398 136 132 127
-9.71372509 29.97627640 5.04171896 225 222 216
-9.72447586 29.93367577 5.02793312 152 150 134
-9.90069294 29.95308304 5.03241777 141 128 109
-9.88102913 29.93909645 5.03665304 109 91 84
-9.79181576 29.89822960 5.03403616 244 243 240
-9.78329086 29.88327026 5.02675295 157 154 147
-9.86800766 29.88748741 5.00860977 180 181 178
-9.78014660 30.02554893 5.06101894 175 173 171
-9.93703175 29.85483932 5.04092789 141 138 133
-9.84510994 29.94817924 5.03435516 148 133 114
-9.81393719 29.87828445 5.01808977 219 217 216
-9.76408005 29.99367905 5.05512381 138 137 126
-9.73067760 30.00473022 5.05406904 150 145 134
-9.71564293 29.99572754 5.05428886 156 153 142
-9.74833679 29.99789238 5.05568600 134 134 117
-9.77555084 29.91989326 5.02311802 138 134 128
-9.81155968 29.94263458 5.04477501 240 239 228
-9.80357075 29.92673302 5.04074478 167 168 162
-9.92955780 29.86825943 5.03665304 117 106 99
-9.82943535 29.94694138 5.03585100 151 143 125
-9.79296970 29.95285416 5.03778505 143 139 120
-9.67792797 29.97165298 5.03252411 142 137 128
-9.75586796 29.90039825 5.03045511 162 166 159
-9.86401558 29.91749191 5.02775192 138 136 123
-9.88341331 29.88985062 4.99736023 143 145 144
-9.78938293 29.91699409 5.03663492 180 179 172
-9.82044220 29.89300537 5.01659679 155 153 140
-9.74888515 30.03281975 5.07297802 144 140 125
-9.90283298 29.93288612 5.07429790 155 153 149
-9.89099121 29.96218491 5.07354784 115 108 103
-9.73702431 29.96969414 5.03814316 151 147 138
-9.84842777 29.88455582 5.00555611 154 154 149
-9.70421314 29.95087433 5.02650023 165 165 156
-9.76121807 29.97349739 5.04466915 159 153 142
-9.75178623 29.94404411 5.03476906 152 147 133
-9.86784840 29.96739006 5.04776812 143 128 100
-9.82053471 29.99106026 5.06713295 226 225 219
-9.79652500 30.01085663 5.07105017 160 159 151
-9.88899040 29.86118126 5.00221491 191 186 183
-9.91340160 29.82795334 5.00554085 169 153 136
-9.78688335 29.93152809 5.02716398 118 111 101
-9.80342293 30.06860542 5.07620811 159 164 164
-9.86356354 30.00269508 5.07139015 153 147 133
-9.88210392 29.99104500 5.07507896 122 117 114
-9.80307484 30.01592445 5.05734110 159 161 155
-9.87305164 29.97842979 5.06892586 148 145 142
-9.75935078 29.98854446 5.04066801 136 126 103
-9.86844540 29.94991112 5.03644180 155 152 143
-9.65717316 30.02856064 5.07128286 137 133 123
-9.66773605 29.98574829 5.04119205 177 171 164
-9.66812229 30.00398636 5.04932117 131 125 112
-9.64286995 30.02424431 5.06731892 133 131 120
-9.59744740 30.00661469 5.06605577 156 159 159
-9.70278835 30.02703667 5.06658697 152 150 137
-9.67673397 30.02868843 5.06556797 140 137 123
-9.61453533 30.01448631 5.06914711 120 117 110
-9.64135456 29.99407387 5.05012083 129 123 114
-9.62417507 29.98613930 5.04919720 138 135 127
-9.61805820 30.00065041 5.05369806 126 121 114
-9.66759491 30.01601982 5.06158304 134 130 117
-9.56734467 29.99268913 5.06009102 106 91 85
-9.68299580 30.00598717 5.05107021 136 130 124
-9.58154392 30.00653648 5.05671501 149 138 134
-9.60654831 29.98889732 5.05398512 141 134 123
-9.58761883 29.97960472 5.05403614 131 126 118
-9.71325970 30.04899216 5.06545782 140 134 128
-9.69834232 30.04696465 5.06479216 154 151 145
-9.63068676 30.01194763 5.06321812 86 79 70
-9.69066525 30.02027893 5.05830097 144 138 128
-9.63699341 29.97958946 5.03650379 143 135 128
-9.65165710 30.00491524 5.05844784 129 125 113
-9.65184879 29.98847198 5.04061890 140 134 125
-9.65160847 30.00619507 5.04327583 143 144 132
-9.33123112 30.40158844 5.06514978 124 104 82
-9.32393646 30.38336754 5.03501701 159 152 137
-9.30845642 30.38776588 5.02907801 142 140 135
-9.32929325 30.31310463 5.01263285 159 151 127
-9.30165577 30.32179642 5.01500607 163 155 138
-9.29172897 30.38153648 5.02170277 143 133 119
-9.35539341 30.34193039 5.05034781 79 64 65
-9.34710503 30.28446198 5.04188395 144 128 108
-9.38017273 30.23050308 5.05584288 169 169 163
-9.37096119 30.25635338 5.05619097 139 139 132
-9.37244225 30.28092194 5.05585289 153 151 143
-9.34989738 30.35555840 5.05593491 129 107 88
-9.35115337 30.32342720 5.04096699 146 140 132
-9.34583759 30.34956741 5.04148197 103 89 78
-9.33229446 30.29899406 5.03082514 144 141 133
-9.36268044 30.29522896 5.03304577 158 141 114
-9.30270195 30.37084961 5.02402496 162 162 154
-9.26535225 30.37049484 5.00836992 134 106 75
-9.38272762 30.26557732 5.06127405 141 134 119
-9.36910915 30.24112892 5.05568886 168 168 166
-9.36606312 30.31035233 5.05424309 97 110 117
-9.33677387 30.32316208 5.03168488 160 152 136
-9.35866165 30.27285957 5.04637480 167 162 148
-9.33637810 30.38074684 5.04522800 108 113 113
-9.30436993 30.30601692 5.01467514 165 163 155
-9.29261780 30.33537292 5.01175785 132 103 89
-9.34745407 30.30537987 5.03922510 124 130 133
-9.31336689 30.40541458 5.03846121 124 128 124
-9.28118801 30.35534859 5.01076412 159 155 147
-9.31291866 30.31549263 5.02397680 148 138 127
-9.32104397 30.34388351 5.02401876 158 151 142
-9.33567142 30.36089325 5.04029799 146 125 101
-9.34261990 30.27128792 5.03590107 147 150 159
-9.30495071 30.35056305 5.02137613 100 88 72
-9.27707767 30.37969017 5.01453590 146 143 137
-9.32233143 30.36281967 5.03111887 122 118 126
-9.36608315 30.32554817 5.06227303 148 144 138
-9.34812355 30.38175011 5.06528521 157 149 137
-9.33240414 30.39418793 5.05087185 98 90 79
-9.32597828 30.41119385 5.05108500 131 132 123
-9.39790726 30.19753838 5.05238581 173 172 172
-9.39676380 30.28341293 5.05474377 172 171 159
-9.36524773 30.25316811 5.03306007 154 154 152
-9.35865211 30.34868240 5.06804800 164 163 158
-9.35871506 30.24121666 5.04440498 169 173 175
-9.39942455 30.23041916 5.05771399 172 173 174
-9.35265064 30.25987244 5.04033613 132 127 121
-9.42651558 30.14971161 5.06090498 184 184 182
-9.37723160 30.30258942 5.06099892 95 101 103
-9.42203617 30.18340302 5.06383801 158 154 156
-9.38990498 30.24637222 5.05451298 136 135 150
-9.36291409 30.29547119 5.04826784 145 141 136
-9.33853626 30.33832169 5.03435183 161 157 150
-9.39801121 30.21410370 5.04199409 163 161 159
-9.34933662 30.28475952 5.02460480 173 166 154
-9.37338543 30.27196693 5.04260778 156 141 115
-9.29010010 30.36646843 5.01578522 130 123 106
-9.30766678 30.33478165 5.02104521 152 141 132
-9.22486305 30.46835327 5.02683210 141 138 125
-9.15447903 30.56333733 5.00815201 144 136 124
-9.27329731 30.40844536 5.02387619 129 135 131
-9.24080563 30.44638443 5.02469587 142 143 140
-9.20447540 30.51024818 5.02717209 163 153 136
-9.26237679 30.42056465 5.02485418 157 159 158
-9.27473164 30.43027496 5.03649187 120 115 101
-9.14495564 30.59865952 5.02721500 170 167 165
-9.18150330 30.56801414 5.02459288 161 160 157
-9.11938763 30.61032867 5.02541113 165 164 161
-9.25926018 30.39191818 5.01415110 172 164 147
-9.20833206 30.46775818 5.01202106 177 175 172
-9.22500038 30.51259995 5.04436779 156 151 139
-9.19491196 30.48341560 5.00865316 168 168 164
-9.27780628 30.39406013 5.02148485 158 151 137
-9.18761730 30.50663948 5.01117611 138 128 115
-9.22244835 30.57953644 5.06351519 140 140 131
-9.29028988 30.42453957 5.03588104 141 132 120
-9.25830460 30.45461845 5.03867483 167 165 156
-9.18406296 30.57970047 5.03588486 168 164 155
-9.16292763 30.59072113 5.03750181 159 158 153
-9.21928978 30.54117393 5.04276180 149 144 132
-9.27865219 30.46784019 5.05508089 145 140 128
-9.20430374 30.48944855 5.02549601 172 153 123
-9.20374775 30.53034782 5.02987719 170 159 131
-9.19472027 30.55771828 5.03027487 167 167 157
-9.21967793 30.55941391 5.05089092 158 146 125
-9.14482117 30.61793137 5.05273008 142 149 148
-9.25695324 30.44113350 5.03064013 159 157 148
-9.22040462 30.48416710 5.03252220 142 135 117
-9.13557243 30.61338806 5.03701878 162 161 157
-9.11675072 30.59029961 5.00953722 165 164 158
-9.15246964 30.53143120 4.99848795 132 130 122
-9.23744583 30.46722221 5.03817606 114 97 84
-9.19023418 30.54454422 5.02429199 137 132 124
-9.16699219 30.56765747 5.01855803 165 161 158
-9.11287975 30.56515694 4.98912477 161 159 156
-9.26334381 30.46964836 5.05667877 152 148 142
-9.21907520 30.45551682 5.01537609 170 168 164
-9.23654556 30.41268539 5.00728798 169 169 166
-9.21527767 30.43731880 4.99516010 166 165 163
-9.20629120 30.45232582 4.99521303 161 161 159
-9.25763798 30.48723412 5.06019688 149 145 136
-9.20390701 30.57879639 5.06056499 160 150 138
-9.19047165 30.58894157 5.06029987 139 126 112
-9.24884510 30.52854919 5.05882215 139 136 123
-9.24085236 30.54571533 5.06006193 159 147 126
-9.23569393 30.56646729 5.05934620 160 158 153
-9.19202042 30.46731567 4.99179220 167 163 158
-9.17483425 30.53520584 5.01253986 137 108 99
-9.14436531 30.57609558 5.01026678 164 159 152
-9.17107010 30.60820961 5.06330395 149 150 145
-9.23531818 30.48348618 5.04506111 147 140 131
-9.25832081 30.51256752 5.06310511 124 120 114
-9.15966892 30.50674629 4.99374723 149 148 140
-9.13258743 30.54339027 4.99040699 129 124 115
-9.11400604 30.57708931 4.99819422 159 154 145
-9.23346996 30.42682457 5.01190186 165 161 159
-9.29363632 30.46442032 5.05668402 136 140 136
-9.31728935 30.43198967 5.06217289 147 146 134
-9.14169216 30.55743408 4.99986219 149 142 131
-9.29628658 30.40165138 5.02788305 135 135 135
-9.17465115 30.49093246 4.99608803 135 127 120
-9.10142231 30.59758568 5.00911379 169 165 157
-9.22528362 30.44106674 5.00870800 162 159 156
-9.31222343 30.41972923 5.05402088 103 99 86
-9.19595814 30.52007675 5.01841021 157 149 137
-9.28487015 30.45750046 5.04092693 128 118 107
-9.12915134 30.56827736 4.99856615 141 134 119
-9.17678833 30.55328941 5.01964283 161 159 152
-9.09939003 30.58355522 4.99669218 162 156 147
-9.17293930 30.51027107 5.00199080 142 133 124
-9.13107681 30.58913231 5.01552105 163 155 144
-9.15759182 30.57958984 5.01959515 166 164 160
-9.30943012 30.44924164 5.06016302 125 119 108
-9.27478123 30.48414230 5.06732702 148 148 134
-9.25632191 30.40754509 5.01989794 153 148 144
-9.24727726 30.42940331 5.02339983 142 151 155
-9.19727993 30.56940269 5.04156685 126 129 131
-9.21392059 30.52042198 5.03544521 136 129 116
-9.24292660 30.50463295 5.05573797 142 138 137
-9.29419899 30.44831085 5.05082607 165 160 150
-9.22565842 30.49794960 5.04072618 152 144 132
-9.22281075 30.41704750 4.99598694 167 167 167
-9.16453457 30.52436447 5.00421286 149 144 128
-9.17656994 30.59729385 5.04584694 169 165 160
-9.16095543 30.54775810 5.01123810 162 165 162
-9.16090584 30.60984802 5.05098820 151 148 143
-9.30387783 30.41728592 5.04166412 110 104 96
-9.23527431 30.52892113 5.05067492 146 140 128
-9.24570560 30.38540649 5.00363922 132 145 150
-9.24734020 30.47639084 5.05186987 159 161 160
-9.28786564 30.47646332 5.06438780 138 130 115
-9.14943027 30.60771751 5.04068422 152 149 149
-9.27299976 30.44410324 5.04549789 150 144 133
-9.30080700 30.43282318 5.05066204 153 148 135
-9.16955280 30.57934380 5.02985191 247 246 244
-9.17848396 30.47599983 4.98930979 150 150 138
-9.20908070 30.55247116 5.04266119 139 143 138
-9.03732586 30.63296318 5.04006910 145 145 138
-9.04312611 30.61814880 5.02251291 162 161 156
-9.02138996 30.62457085 5.02506399 168 166 161
-8.98228836 30.63253212 5.02151585 162 161 157
-8.96629143 30.64067459 5.02109098 161 157 151
-8.94814682 30.64989090 5.01952124 162 157 151
-8.90472603 30.67516136 5.02279902 135 131 125
-8.97452068 30.65822220 5.04472685 173 172 166
-8.95462608 30.66607475 5.04413319 148 152 153
-9.02437973 30.64213371 5.04414082 157 154 145
-8.99589157 30.65015602 5.04646015 162 159 152
-8.92553234 30.66810226 5.04300117 100 83 63
-8.90335941 30.67693138 5.04451513 128 125 113
-8.87676525 30.70020676 5.04625082 139 139 137
-8.85973167 30.71855545 5.04498291 136 136 131
-8.98661137 30.61793518 5.00282097 141 137 135
-8.88273621 30.68682480 5.00810814 153 153 156
-8.96394444 30.62774277 4.99999714 150 147 146
-8.94076824 30.66206169 5.02933598 168 164 157
-8.88540459 30.69037819 5.03112411 137 140 141
-8.90130138 30.67240143 5.00194693 142 140 138
-8.85382271 30.71376038 5.00116491 146 142 140
-8.84535313 30.72797203 5.04683113 132 123 114
-8.84044838 30.74479675 5.04710197 163 158 151
-8.97590446 30.64686394 5.03251791 163 160 155
-9.00469589 30.62665558 5.02335405 160 156 153
-8.92438316 30.66435814 5.02004099 133 133 131
-9.05468082 30.60925484 5.01513386 164 161 155
-9.07413769 30.59413147 5.00355911 164 159 150
-9.03643227 30.60321236 5.00770283 163 160 156
-9.01049519 30.61184120 5.00579786 149 147 135
-8.94828033 30.64030075 5.00513887 152 153 143
-8.92497730 30.65787125 5.00359201 153 149 139
-9.04009914 30.59227180 4.99777222 163 161 156
-9.01464653 30.59852028 4.99582100 157 155 154
-8.84122086 30.72743607 5.03144217 142 141 138
-9.05147266 30.58185768 4.99034309 160 156 153
-9.00419617 30.66496658 5.05916119 157 158 156
-9.01919079 30.65325928 5.05401611 159 161 158
-8.99794388 30.63794136 5.03425407 163 161 155
-8.87052536 30.70905495 5.03538418 151 150 148
-8.96071434 30.65564346 5.03322792 167 164 159
-8.85864639 30.71764565 5.02970886 149 147 147
-8.83531475 30.74069786 5.02614212 145 139 135
-8.87517929 30.69887161 5.02225590 150 149 147
-9.02402020 30.61143875 5.01502800 159 156 152
-8.84495544 30.72203636 5.01732397 143 141 139
-8.86581612 30.69975090 5.00669289 170 167 166
-8.83474922 30.73604202 5.00535297 162 157 146
-9.00178146 30.60635567 4.99334192 173 175 173
-8.85848045 30.71195030 5.01542282 148 146 145
-9.05578899 30.59630966 5.00504303 118 103 100
-8.91242695 30.66460419 5.00978613 144 142 140
-8.88727379 30.68501472 5.04625511 139 139 135
-8.82343483 30.76865387 5.04273081 176 175 170
-8.75775623 30.86859131 4.99722910 149 153 148
-8.75086975 30.88249397 4.99950981 113 110 96
-8.81488228 30.83771133 5.04322910 152 142 128
-8.80580807 30.85265732 5.04544878 134 128 128
-8.82073784 30.78994751 5.03995800 152 150 145
-8.80919647 30.81534576 5.03911114 160 154 148
-8.79771042 30.86696053 5.04008722 151 148 134
-8.81082821 30.77526665 5.02936792 170 168 167
-8.80204487 30.79730415 5.02636719 164 158 151
-8.78902340 30.81052589 5.02511883 147 136 123
-8.78554153 30.82570267 5.02323103 162 165 166
-8.77708340 30.83835983 5.02215290 118 107 93
-8.77178383 30.85762024 5.02030277 166 166 162
-8.77157688 30.87397194 5.01749420 162 161 156
-8.76118565 30.89613914 5.01660490 169 167 157
-8.75069809 30.91684341 5.01349688 148 142 133
-8.80131912 30.88494682 5.04399681 144 138 127
-8.79004669 30.89953232 5.04177189 150 144 132
-8.78818607 30.91597939 5.04215717 94 84 73
-8.82228756 30.74554443 4.99750710 156 152 149
-8.80041885 30.76287079 4.99818516 154 149 146
-8.77460194 30.79086494 4.99465513 173 173 171
-8.75586796 30.83266449 4.99180222 156 153 150
-8.75183487 30.85566521 4.98902178 157 155 142
-8.74289417 30.87070084 4.98799181 112 127 135
-8.73745346 30.88846970 4.98500919 140 135 128
-8.77841854 30.93726158 5.04235315 152 138 126
-8.81586933 30.80268860 5.04663181 163 161 162
-8.77539921 30.91007614 5.03386593 148 129 110
-8.83864784 30.76407433 5.05517101 156 152 150
-8.82926655 30.78151894 5.05310392 163 164 163
-8.76668644 30.92666626 5.03180313 161 158 146
-8.82647038 30.83442116 5.05338383 137 129 119
-8.81785774 30.86486626 5.05280018 155 152 143
-8.81581497 30.89218521 5.05239487 153 151 144
-8.81100655 30.91046906 5.05488110 141 136 124
-8.79845428 30.94058990 5.05521202 152 144 133
-8.82217884 30.75934029 5.02504110 150 146 143
-8.78107357 30.87318611 5.02980804 149 138 129
-8.80733967 30.76696205 5.01270103 154 152 151
-8.79206371 30.78807449 5.01484108 165 160 155
-8.77433777 30.81275940 5.01154900 162 151 138
-8.79464626 30.83974457 5.03268290 161 157 151
-8.77420235 30.89120293 5.02460098 157 157 154
-8.78717136 30.95377350 5.04860306 136 126 114
-8.76348495 30.91035461 5.02252722 120 116 106
-8.72127056 30.88540649 4.97340107 149 148 139
-8.76755333 30.83083534 5.00417519 249 246 242
-8.76366329 30.85532951 5.00252914 98 92 86
-8.78991985 30.77946281 5.00256395 156 154 154
-8.77340984 30.95122337 5.03602314 142 139 130
-8.73314190 30.87541962 4.97469187 142 130 117
-8.72927570 30.90411377 4.98619986 131 122 120
-8.74258041 30.90356064 5.00084686 123 111 98
-8.83031940 30.75474930 5.04045010 166 165 165
-8.82552242 30.74538422 5.01392603 159 158 153
-8.83222866 30.86372757 5.05769920 139 141 143
-8.76496792 30.84399605 5.01312685 178 159 130
-8.74327946 30.92201042 5.00139189 165 159 146
-8.76531506 30.80977058 4.99480486 110 100 92
-8.79650497 30.92390633 5.05249405 160 160 156
-8.75565338 30.93452263 5.02179718 158 151 139
-8.78493595 30.88724327 5.03470278 144 145 146
-8.82318878 30.81944466 5.05066013 167 163 160
-8.79022598 30.85419083 5.03290701 145 138 130
-8.73810005 30.86002731 4.97772312 129 134 138
-8.77961445 30.96713257 5.04649687 138 131 119
-9.09601498 30.63901520 5.06218576 230 227 222
-9.05685806 30.63315201 5.05607796 128 111 88
-9.09944153 30.61674690 5.02151823 158 153 144
-9.07673073 30.61412811 5.02051592 158 156 152
-9.09526539 30.63283539 5.04134703 155 147 131
-9.12949181 30.62522125 5.05230808 143 139 134
-9.11146164 30.62901688 5.05059099 146 144 140
-9.12042618 30.62220192 5.03664684 154 153 148
-9.06917381 30.62617683 5.03466415 131 126 122
-9.07542515 30.63112259 5.04917717 149 132 116
-9.03862572 30.64230728 5.05667400 123 104 85
-9.08438301 30.62290764 5.03084898 149 147 142
-9.08596039 30.60478401 5.01194286 161 157 148
-9.05386353 30.62658310 5.03187704 148 152 150
-8.79443359 30.95399857 5.06194115 148 143 140
-10.47762680 30.37974739 6.82414484 129 126 116
-10.52980518 30.33955956 6.88923120 98 96 90
-10.50853729 30.35852814 6.83784580 116 110 95
-10.49509621 30.36867523 6.83758116 122 116 103
-10.37331486 30.46072388 6.83952618 88 81 77
-10.30862808 30.49125862 6.80841494 136 134 130
-10.40226746 30.44079208 6.86839008 138 136 130
-10.37649822 30.45782471 6.86889982 132 131 126
-10.33380318 30.48637962 6.86361122 127 125 116
-10.49122906 30.37127113 6.86682081 134 131 123
-10.51467800 30.32047844 6.79684687 141 134 129
-10.49462891 30.34611130 6.79674578 155 150 141
-10.51057434 30.35352707 6.91164494 51 56 61
-10.35785103 30.46956635 6.90973806 92 95 88
-10.30877018 30.49037552 6.90505695 156 156 149
-10.34703636 30.47888565 6.87806082 125 122 117
-10.31727600 30.49415970 6.87618589 137 135 129
-10.48611736 30.37433052 6.91014099 108 121 127
-10.53023243 30.34108353 6.84150410 122 115 101
-10.43914127 30.41718292 6.83882618 141 139 132
-10.47924137 30.38397408 6.87754679 135 131 127
-10.48181343 30.38040352 6.85908890 131 127 119
-10.46989822 30.39036369 6.85888100 147 146 142
-10.46728134 30.38988304 6.90654802 145 142 134
-10.48151207 30.32480049 6.78801012 137 131 124
-10.36552238 30.47384071 6.82219791 142 139 135
-10.49555397 30.36340523 6.80812788 99 90 74
-10.42967701 30.41790771 6.80478907 162 158 148
-10.47774887 30.38540840 6.83951378 150 152 145
-10.41431522 30.43494034 6.83722210 136 131 124
-10.52637005 30.34508133 6.87512589 130 124 114
-10.53760624 30.33588791 6.85469198 133 129 121
-10.51328278 30.35276031 6.87806416 138 135 127
-10.50222015 30.36338806 6.87790918 122 117 107
-10.50220108 30.36189651 6.85288715 110 99 83
-10.46151161 30.39626312 6.87499523 134 134 130
-10.39386940 30.44257927 6.89199114 132 129 122
-10.39895439 30.44631195 6.83039618 142 142 137
-10.53741455 30.33731842 6.90576982 133 126 109
-10.47090435 30.36889267 6.80293083 121 107 95
-10.45983791 30.37952042 6.80277586 123 113 101
-10.32801819 30.48758316 6.91879797 122 119 110
-10.46413231 30.39543533 6.84358215 121 118 110
-10.33491039 30.48713875 6.83652496 124 123 118
-10.51896667 30.34738731 6.83253098 121 115 103
-10.44075775 30.40039825 6.80258083 128 123 111
-10.35130405 30.47089577 6.79981279 122 119 111
-10.46723938 30.39091873 6.82837677 141 138 129
-10.34799099 30.47805977 6.82920313 128 124 117
-10.51227570 30.33516121 6.80584812 130 123 110
-10.45323181 30.40338135 6.83032608 141 139 134
-10.37965202 30.45735550 6.82448721 93 87 85
-10.42683792 30.42129707 6.82974911 143 141 132
-10.31182480 30.49246788 6.83029985 130 128 121
-10.36364269 30.46705437 6.87080479 108 110 108
-10.44634914 30.40522575 6.91698408 138 136 125
-10.38420677 30.45302010 6.91578293 140 140 134
-10.53874397 30.33658409 6.80588388 183 180 169
-10.41523361 30.42178345 6.81082582 149 145 137
-10.31850910 30.49229813 6.85772181 124 120 111
-10.37277222 30.46191216 6.89927292 147 146 142
-10.38666344 30.44485283 6.80270100 132 131 125
-10.45186234 30.40514946 6.85204077 137 135 128
-10.42805767 30.41958809 6.85364580 133 130 124
-10.40622902 30.43694305 6.85324001 129 127 119
-10.39521027 30.44760323 6.85200214 132 130 123
-10.35014725 30.47707939 6.85098505 123 121 116
-10.52958488 30.32808113 6.81613207 105 96 82
-10.31066608 30.49192238 6.92146778 109 111 107
-10.37406540 30.45286369 6.79372215 107 97 86
-10.31587791 30.48170853 6.78997898 143 140 135
-10.50449181 30.30421638 6.78837299 147 144 133
-10.49428177 30.31550980 6.78827190 150 147 136
-10.47234154 30.33828545 6.78801298 167 161 149
-10.44647884 30.35385513 6.78630590 160 153 141
-10.43140602 30.36961174 6.78613091 160 152 139
-10.46474457 30.35301590 6.79137182 198 190 182
-10.42558289 30.41929054 6.91870022 141 139 130
-10.42311382 30.39067268 6.78746796 123 114 98
-10.40953636 30.39932632 6.78606987 141 132 119
-10.38789368 30.41820526 6.78571415 130 122 112
-10.40147781 30.43762779 6.92040205 138 135 126
-10.41588211 30.42674828 6.89244699 146 145 142
-10.50312233 30.36277771 6.89313507 139 134 124
-10.33864307 30.48338318 6.88979006 129 123 113
-10.44351673 30.40837097 6.87894297 124 120 114
-10.45330906 30.40097618 6.90302992 129 126 117
-10.43906307 30.41048431 6.90162802 113 111 101
-10.32939434 30.48721504 6.90146589 136 135 127
-10.34491062 30.46445465 6.78416586 134 130 119
-10.33011055 30.46939850 6.78261280 127 123 114
-10.45873260 30.39246368 6.81286716 134 131 122
-10.42319012 30.43208694 6.79731989 143 140 134
-10.36746025 30.46975136 6.79826784 144 140 134
-10.51800442 30.35083008 6.84887791 129 121 105
-10.44114971 30.40764427 6.81583309 146 143 136
-10.40486145 30.43469429 6.90307903 130 131 127
-10.42891693 30.41763687 6.88620806 123 122 115
-10.32871532 30.48633385 6.81344080 132 127 120
-10.40364361 30.42507744 6.80066919 164 162 155
-10.33521748 30.47897720 6.80155516 117 116 108
-10.47227955 30.38822746 6.89150000 121 118 111
-10.50793266 30.35524178 6.82252407 140 136 122
-10.41027546 30.43446732 6.81966591 144 143 138
-10.49304390 30.37251663 6.82240009 105 97 85
-10.34540844 30.48424911 6.81515217 134 134 134
-10.39447975 30.44964218 6.81618786 134 130 124
-10.52359676 30.34268379 6.81738281 111 109 102
-10.37835503 30.46040344 6.80714083 110 112 112
-10.54217339 30.33401489 6.87111712 137 132 121
-10.42229939 30.42203903 6.87085581 137 135 129
-10.38940144 30.44862175 6.86591196 137 136 130
-10.47656822 30.38574791 6.81015015 138 134 127
-10.40755367 30.43916321 6.80448008 144 143 138
-10.50714588 30.35043144 6.80715179 107 95 80
-10.45643330 30.40163612 6.80108309 131 131 127
-10.38368893 30.45110512 6.88203812 132 130 124
-10.48151875 30.35927200 6.79766512 144 140 130
-10.34321308 30.48151207 6.90621710 121 120 112
-10.45203304 30.38852501 6.79293394 174 170 158
-10.49245739 30.37367630 6.88323021 137 134 125
-10.35905743 30.47178650 6.88487005 136 132 111
-10.52204323 30.34457588 6.90643120 124 123 114
-10.38137817 30.43515396 6.78809500 130 120 106
-10.35992336 30.45555305 6.78778887 126 120 109
-10.30235291 30.48211098 6.78074884 136 134 130
-10.44561863 30.37386513 6.79226112 163 157 145
-10.43704033 30.41426659 6.86472416 141 139 133
-10.39927864 30.44366074 6.79232216 141 140 132
-10.44712067 30.40394783 6.78882122 147 137 124
-10.43781757 30.41733932 6.79207277 161 160 145
-10.35923290 30.47428131 6.78502607 138 135 128
-10.40975285 30.43255043 6.78592205 124 121 113
-10.38564205 30.44948578 6.78323793 102 100 98
-10.41470146 30.41304779 6.79644012 145 140 129
-10.37170124 30.45978355 6.92089081 151 147 140
-10.46126556 30.36819077 6.78948402 174 169 157
-10.34515285 30.47980309 6.78677797 141 137 133
-10.34830761 30.47729683 6.92151213 133 132 119
-10.46409893 30.32630920 6.78299618 149 143 129
-10.45907307 30.39590454 6.91832876 135 132 123
-10.41366100 30.42784882 6.91410923 143 141 133
-10.36363792 30.46836472 6.85454988 119 115 106
-10.42454147 30.41840935 6.90234280 124 120 111
-10.40864944 30.43343544 6.88039207 135 134 129
-10.49775314 30.36138916 6.90808201 68 66 67
-10.31713676 30.49135780 6.89130688 98 93 90
-10.49586678 30.33054733 6.79527378 199 195 188
-10.45506668 30.34128571 6.78413296 157 153 143
-10.38177204 30.45774651 6.85173607 131 133 130
-10.44600677 30.42386436 6.82191515 148 148 141
-10.37379837 30.46638870 6.78322792 131 123 120
-10.16783619 30.57133293 6.84508801 102 102 99
-10.14828300 30.57531166 6.84331512 102 100 94
-10.12953854 30.57993126 6.84267807 133 132 128
-10.25658703 30.50979424 6.81332397 136 133 129
-10.30238628 30.49904060 6.87680101 89 86 83
-10.11566544 30.58846664 6.86950207 123 121 118
-10.28231716 30.50381660 6.82941103 163 162 160
-10.25756073 30.51612473 6.82874393 161 160 155
-10.24133205 30.52271652 6.82935190 142 143 142
-10.12915802 30.57113266 6.78268194 141 138 135
-10.08900261 30.59618378 6.78065586 112 103 96
-10.20002937 30.55099487 6.82737017 140 139 135
-10.17111874 30.56693649 6.82555008 106 103 101
-10.15479946 30.57206726 6.82394123 113 111 109
-10.12952805 30.57984161 6.82204008 122 119 115
-10.08902645 30.59636497 6.82193279 139 139 139
-10.21626568 30.54449463 6.84740210 152 153 151
-10.18716240 30.56449127 6.86414909 120 120 115
-10.25004292 30.52442741 6.93293619 85 84 86
-10.23812389 30.53438759 6.93272781 88 84 92
-10.21026230 30.55392075 6.93539286 107 105 101
-10.27686691 30.49810600 6.81165218 137 137 140
-10.23735332 30.51538658 6.80834913 155 155 155
-10.11649036 30.58057785 6.80089188 131 128 123
-10.14534473 30.57288551 6.81054401 98 96 91
-10.20158005 30.55641174 6.84496307 154 156 155
-10.10913658 30.58726311 6.81272507 125 125 122
-10.26921272 30.49063492 6.78506517 123 121 116
-10.16682434 30.57203484 6.87439108 85 75 68
-10.08126831 30.60539627 6.81100702 125 123 121
-10.06321812 30.61607552 6.81165504 130 127 120
-10.14556599 30.57468033 6.87251091 120 117 109
-10.28427792 30.50688553 6.86976385 115 111 105
-10.09821415 30.59536552 6.84182978 128 127 124
-10.26324463 30.51403999 6.91797876 124 124 118
-10.22772694 30.54546928 6.91632080 123 124 121
-10.19654179 30.56239319 6.91660690 131 131 130
-10.18239021 30.56770134 6.87816381 92 90 85
-10.13909340 30.58493233 6.91380405 148 147 147
-10.11608219 30.60557747 6.93516397 167 173 176
-10.28864574 30.50471115 6.84924603 133 133 128
-10.26303387 30.51635170 6.84852505 130 126 122
-10.04453373 30.63451767 6.81358099 144 144 142
-10.12466812 30.59431648 6.91673517 146 149 149
-10.06142044 30.64101982 6.85898113 144 141 132
-10.13486481 30.57726669 6.85693979 118 112 108
-10.28836823 30.50206375 6.93061686 131 126 114
-10.22699738 30.50442314 6.78046703 141 139 134
-10.23675156 30.53582191 6.87080288 138 140 134
-10.21107197 30.55291367 6.86914778 136 133 129
-10.20073509 30.51972008 6.78851080 171 169 164
-10.11384773 30.58557701 6.84653902 129 128 125
-10.07835579 30.61152649 6.84690094 141 142 140
-10.06814480 30.62282181 6.84679985 140 136 132
-10.25438309 30.52207184 6.87113905 140 139 134
-10.10545635 30.59007645 6.85827017 165 166 164
-10.29112530 30.50001526 6.91220903 134 130 120
-10.24258137 30.53227234 6.91004181 107 103 99
-10.21436882 30.55427361 6.90950489 124 121 116
-10.17605972 30.56975746 6.90946007 124 123 120
-10.24504089 30.52846146 6.85247278 141 141 138
-10.22976398 30.53717995 6.85535192 149 147 143
-10.15896893 30.57427979 6.90562916 136 137 136
-10.11353683 30.60071182 6.90451288 156 158 158
-10.08832741 30.62230873 6.90517378 158 161 161
-10.07763386 30.63598061 6.90511894 155 155 152
-10.06767941 30.65574074 6.90526581 100 94 84
-10.16246128 30.56559372 6.80452299 141 138 131
-10.22578335 30.54520035 6.88473797 146 145 138
-10.18344498 30.56702423 6.84777784 126 127 127
-10.21635437 30.52649879 6.80671597 154 153 148
-10.07517338 30.62846756 6.88417292 163 154 145
-10.07260036 30.64573860 6.88563681 148 148 139
-10.29486275 30.49568367 6.81883621 152 143 137
-10.23349380 30.53178024 6.84123421 143 144 143
-10.08615017 30.60243034 6.83610487 134 134 131
-10.06620502 30.62124443 6.83147097 149 146 140
-10.28744507 30.49116325 6.79559803 141 142 139
-10.26123333 30.49821091 6.79581118 142 141 136
-10.24262524 30.50291824 6.79192495 157 155 151
-10.21881676 30.51735497 6.79352713 158 158 154
-10.18541622 30.54080391 6.79173279 167 168 167
-10.15683460 30.55975914 6.79109621 160 159 155
-10.20297432 30.53947639 6.81413507 157 158 155
-10.18753338 30.55218506 6.81385994 152 149 143
-10.14003563 30.56866646 6.79391718 159 159 155
-10.06579208 30.61250496 6.79319811 130 126 125
-10.03896141 30.63282776 6.79158401 126 126 125
-10.10512924 30.58541870 6.78970098 128 128 126
-10.09402847 30.59470558 6.80688620 136 137 136
-10.10116291 30.61725044 6.91750288 159 160 161
-10.14572906 30.57766533 6.89866590 147 148 149
-10.12749577 30.58682060 6.89926386 156 157 157
-10.08590508 30.63148117 6.91727781 165 165 164
-10.05060768 30.62399864 6.78203678 113 108 100
-10.25681114 30.51996231 6.90267611 120 116 108
-10.09704876 30.60983276 6.89975119 158 159 159
-10.18024063 30.57172585 6.92814922 137 137 135
-10.16410160 30.57837677 6.92658901 143 139 136
-10.13119030 30.59813690 6.94100285 155 157 156
-10.11593723 30.58438492 6.82812691 115 113 110
-10.27452469 30.50487137 6.89646101 147 144 135
-10.09364128 30.63761139 6.93731689 148 146 143
-10.08034420 30.64924812 6.93818378 135 132 129
-10.17273521 30.55015564 6.78930521 156 156 152
-10.22620869 30.54434776 6.93251991 107 103 99
-10.07085228 30.62500954 6.86434984 163 164 162
-10.21680641 30.53657722 6.82765198 133 131 126
-10.08878136 30.60735703 6.86458921 148 146 144
-10.10210228 30.59992027 6.87687111 129 126 124
-10.25327396 30.49192810 6.78118992 140 139 137
-10.05318356 30.63446236 6.83022499 146 145 137
-10.15924263 30.58152580 6.94277096 122 122 120
-10.10735703 30.61805725 6.94058704 151 154 154
-10.23725128 30.49316025 6.77948380 161 163 159
-10.08294201 30.60113144 6.79358006 137 138 137
-10.14319324 30.58823967 6.93904400 147 151 153
-10.26819134 30.51497078 6.87150383 92 86 82
-10.29900265 30.50197411 6.89412117 106 106 99
-10.11676025 30.59077644 6.88916111 168 170 168
-10.15974808 30.57333183 6.86110401 122 122 118
-10.15844536 30.54994965 6.77785397 154 153 152
-10.21060467 30.51500320 6.77791977 132 128 124
-10.27200794 30.50856209 6.93447399 137 135 128
-10.24324512 30.53272629 6.89378977 144 144 142
-10.20247364 30.56006241 6.89506197 111 110 107
-10.17672443 30.57021332 6.89320803 124 126 122
-10.15788174 30.57336807 6.89035416 117 118 115
-10.05365372 30.62231445 6.79840612 137 136 128
-10.19512081 30.56273270 6.93502092 106 105 99
-10.26243591 30.51742172 6.88871622 121 120 111
-10.13632011 30.57851219 6.88418579 129 131 125
-10.14879131 30.57878113 6.92380381 151 156 159
-10.07378769 30.64679909 6.91938400 157 161 159
-10.23039532 30.54336166 6.90007877 137 137 135
-10.08742332 30.61323738 6.87881708 144 143 139
-10.30300617 30.49946594 6.86163187 124 113 105
-10.18735600 30.56174850 6.82932615 153 151 148
-10.18906784 30.56612968 6.90120077 116 114 113
-10.14215088 30.56199265 6.77752590 139 139 137
-10.27619934 30.50626755 6.91829014 126 124 117
-10.22603321 30.52723312 6.81907988 143 140 134
-10.06131077 30.61443710 6.77460384 123 121 115
-10.06981754 30.65728951 6.87390089 146 136 129
-10.19820118 30.53431129 6.80076218 142 143 140
-10.30352783 30.49843025 6.84424686 127 127 123
-10.20180225 30.56222534 6.87880421 129 129 123
-10.07404518 30.60651207 6.78033400 125 123 118
-10.17437840 30.55563164 6.80473089 161 162 163
-10.18831921 30.52925110 6.77958107 147 149 147
-10.05443096 30.64237785 6.84353018 166 162 152
-10.09766006 30.62420273 6.93058681 152 152 149
-10.28338337 30.48517609 6.78114605 143 142 141
-10.11543179 30.57689476 6.77576399 134 132 131
-10.12857437 30.58066559 6.87089682 118 117 113
-10.28603172 30.50694275 6.88504314 72 68 61
-10.07460308 30.60575104 6.82486391 151 152 153
-10.03877068 30.63261414 6.77527905 125 124 120
-9.85882092 30.78807068 6.80377483 144 143 135
-9.91942215 30.72797775 6.78501892 138 138 134
-9.90007019 30.74727440 6.78694010 134 131 124
-9.88596153 30.75827408 6.78667116 126 122 114
-9.87167072 30.76775169 6.78635311 130 128 120
-9.85814381 30.77783966 6.78825521 133 130 123
-9.84308910 30.78671265 6.78571606 134 134 128
-9.83104038 30.79657936 6.78875923 139 138 132
-9.81455326 30.80570030 6.78399515 138 136 131
-9.84794140 30.80990219 6.81480217 165 162 156
-9.83003616 30.81238556 6.80545187 158 160 156
-9.88282967 30.76827431 6.79985619 136 133 128
-9.84510136 30.79523087 6.80124187 153 151 144
-9.89185810 30.74492264 6.77133322 152 151 146
-9.86489296 30.76515579 6.77297020 148 148 143
-9.81925011 30.79554749 6.76978397 143 143 135
-9.83805943 30.82421112 6.81588507 146 143 137
-9.84622097 30.77671623 6.77253103 128 123 118
-9.90730572 30.73361397 6.77599287 142 141 137
-9.87006092 30.77756310 6.79959488 146 144 137
-9.92842102 30.71708107 6.77747917 138 135 129
-9.83211803 30.78771591 6.77226305 133 132 126
-9.71432972 30.95907784 6.88628817 140 136 131
-9.80159664 30.81346893 6.78368282 148 147 143
-9.78726101 30.82291603 6.78444815 140 137 131
-9.77297211 30.83239555 6.78413010 144 143 136
-9.76200581 30.84448433 6.78619289 147 145 140
-9.74480438 30.85442734 6.78250885 167 164 158
-9.79214478 30.86541176 6.81407595 132 129 121
-9.76096153 30.89473343 6.81362295 140 137 128
-9.73648453 30.86857986 6.78256607 154 149 141
-9.74227142 30.90480042 6.78816223 134 129 118
-9.73156929 30.91706848 6.78372288 97 94 83
-9.71926785 30.93086815 6.78577900 116 111 99
-9.71261120 30.94632530 6.78702593 129 124 114
-9.70095158 30.96474838 6.78706503 121 120 114
-9.69111443 30.97908592 6.78706408 118 117 110
-9.67803764 30.99087524 6.78251696 128 126 116
-9.66580582 30.99922371 6.78550816 127 123 110
-9.65132809 31.00717926 6.78513908 119 114 100
-9.63722324 31.01818275 6.78487110 153 149 136
-9.72990227 30.88129616 6.77287912 104 92 72
-9.75471497 30.87879181 6.80423403 137 132 122
-9.74890041 30.91419220 6.80715799 127 127 118
-9.65804958 31.00563812 6.80709314 110 106 95
-9.81383705 30.81620789 6.79620790 145 144 144
-9.73877239 30.92414665 6.80050707 126 127 120
-9.66866493 30.99601746 6.80182695 112 110 103
-9.72217083 30.95436859 6.92992020 140 138 130
-9.64680576 31.00835037 6.93052292 117 111 101
-9.67013836 30.98800659 6.92221880 139 136 130
-9.70262337 30.96910095 6.86002398 132 128 122
-9.75380135 30.93208313 6.87954187 142 141 134
-9.73959827 30.94162178 6.87705612 138 135 129
-9.72584438 30.95015526 6.87999105 110 108 106
-9.70195866 30.96864510 6.87627411 128 126 120
-9.68923378 30.97796440 6.87492990 118 115 108
-9.66905117 30.99111366 6.87881804 115 114 109
-9.65579700 31.00278091 6.87860298 132 129 123
-9.63806915 31.01507187 6.87605000 108 106 102
-9.80128288 30.84361649 6.80840921 183 181 175
-9.76758099 30.87096214 6.80671120 106 98 87
-9.72929001 30.93741798 6.80809402 164 163 157
-9.71841431 30.94956779 6.80799007 142 140 133
-9.69284153 30.97551918 6.93583012 122 120 110
-9.70772076 30.96323776 6.80793524 147 145 139
-9.69608593 30.97618294 6.80999517 123 122 118
-9.68651772 30.97404671 6.76935816 124 120 113
-9.65977478 30.99771881 6.90034580 103 99 94
-9.75697041 30.92637825 6.90014696 121 119 114
-9.74000454 30.93927574 6.89981508 128 125 117
-9.72808933 30.94923782 6.89960718 127 125 119
-9.70559406 30.96744728 6.89919806 125 122 116
-9.69134903 30.97695541 6.89779520 119 114 104
-9.67463684 30.98592186 6.89844990 121 117 108
-9.64546108 31.01267815 6.89800692 114 114 108
-9.65799522 30.99510384 6.93929815 120 116 107
-9.73979187 30.93650627 6.93774223 143 139 134
-9.75354195 30.92657089 6.93042278 152 153 148
-9.70569038 30.96488953 6.92954111 146 144 141
-9.66802406 30.99705505 6.84310102 118 116 111
-9.76607132 30.91670227 6.83182478 129 125 120
-9.73188210 30.94264793 6.92129898 142 141 136
-9.63290405 31.01670265 6.91606903 125 121 114
-9.68480110 30.98665619 6.81525707 112 111 109
-9.64416218 31.01408195 6.81327820 97 92 78
-9.79005718 30.83755684 6.79909182 188 188 183
-9.76975346 30.85472488 6.79874277 190 189 182
-9.75636101 30.86490250 6.79739380 96 89 76
-9.69978619 30.96846771 6.91310787 152 150 144
-9.74990082 30.89567375 6.80233717 129 122 110
-9.64545059 31.01365280 6.79811287 137 131 118
-9.64983082 31.00754929 6.82636023 120 117 100
-9.74629402 30.93152428 6.83034515 128 126 119
-9.69169044 30.98112869 6.84036303 119 117 111
-9.72684097 30.94936180 6.83004999 120 118 112
-9.70185757 30.97251129 6.82967710 130 127 120
-9.63553619 31.01267242 6.77052784 122 117 101
-9.71256733 30.95762062 6.86662483 116 117 118
-9.66275215 30.99712944 6.86026382 115 120 120
-9.68975735 30.97692871 6.85754490 116 116 117
-9.74692059 30.93901253 6.85881901 132 133 130
-9.73465633 30.95144081 6.85540724 140 140 135
-9.71738625 30.95879745 6.90704012 130 129 123
-9.71944141 30.95602036 6.84296703 139 139 138
-9.67537403 30.98527908 6.93864679 102 100 89
-9.63676929 31.01705360 6.93795919 136 131 120
-9.63698101 31.01818275 6.83264923 194 191 179
-9.75843143 30.92737961 6.86439419 123 120 113
-9.72199917 30.96335030 6.79874611 126 128 122
-9.65074539 31.00702858 6.86222315 109 106 97
-9.63510895 31.01681709 6.85751486 128 123 111
-9.71594048 30.96699142 6.82792521 130 132 130
-9.67504597 30.99834633 6.82496119 131 130 132
-9.69224834 30.99242210 6.80051708 134 132 128
-9.76139927 30.92539406 6.81992912 143 141 137
-9.67570400 30.98936081 6.86057615 110 108 103
-9.74641228 30.83222580 6.77000713 148 143 133
-9.72790146 30.89625168 6.77213001 153 153 141
-9.71402359 30.90880585 6.77082682 134 127 111
-9.69684792 30.95872879 6.77369595 125 123 115
-9.72624874 30.95986938 6.81837320 131 132 131
-9.81128311 30.85836029 6.81683302 106 107 107
-9.74866581 30.93331528 6.81419992 139 138 136
-9.79526234 30.88437653 6.81365013 109 112 115
-9.75779819 30.92522049 6.79153919 152 139 129
-9.80417728 30.87210846 6.82453108 146 144 136
-9.77905083 30.89377022 6.82302380 130 126 119
-9.73580265 30.93417168 6.78872013 142 134 123
-9.82199192 30.83780479 6.81452322 143 141 134
-9.65540218 30.99849129 6.91647911 128 126 116
-9.68277740 30.98133278 6.91385889 134 132 123
-9.66524506 30.99596596 6.76910210 111 106 90
-9.74048996 30.88412857 6.78859615 156 151 140
-9.63255024 31.02047539 6.89661121 120 119 111
-9.74920177 30.92999649 6.91296387 113 111 105
-9.70748520 30.93123627 6.77118778 216 210 198
-9.76692963 30.82349014 6.77168703 142 140 133
-9.80511475 30.82868385 6.80163097 178 179 176
-9.70923233 30.96731567 6.84286594 119 116 113
-9.70844841 30.97891808 6.79862785 145 139 135
-9.73358345 30.84836769 6.77319384 156 153 145
-9.78787994 30.81094742 6.77002001 158 158 154
-9.72335434 30.95747185 6.78451777 129 128 121
-9.70807171 30.97718430 6.78227377 133 137 132
-9.72675133 30.94494438 6.77670479 106 104 95
-9.75853062 30.92022514 6.77622509 117 112 96
-9.73716068 30.92829323 6.77449083 97 90 79
-9.65145302 31.00751495 6.84488916 147 145 137
-9.75908756 30.92643738 6.84375811 165 164 156
-9.73912239 30.93973732 6.84222889 129 128 123
-9.77974606 30.87774849 6.81391478 123 123 115
-9.72530079 30.86114883 6.76778078 158 155 144
-9.65084171 31.01086617 6.76893091 128 125 115
-9.63294315 31.02041435 6.80322313 123 119 105
-9.71491337 30.95356369 6.76994419 96 95 90
-9.77797508 30.90665245 6.81139421 121 114 96
-9.97307777 30.67624855 6.77272892 140 140 136
-10.01230145 30.67961121 6.83090305 157 156 150
-9.85068798 30.83550262 6.82540607 111 109 106
-10.01061058 30.73220634 6.88335323 127 123 116
-9.96978855 30.77050209 6.88058615 136 134 128
-9.97354698 30.69880867 6.81356716 155 153 150
-10.02528572 30.72857094 6.89253998 118 117 114
-10.05681229 30.68168259 6.90880680 125 121 112
-10.04518223 30.70701981 6.91012812 127 125 117
-10.03077602 30.72192192 6.90995598 126 124 117
-9.99592686 30.75249672 6.90830183 128 126 122
-9.96543598 30.77547836 6.90987015 130 128 125
-9.94722271 30.79014397 6.90736580 148 146 140
-9.93311977 30.80114555 6.90709686 152 150 144
-9.91834354 30.81299782 6.90682507 157 157 152
-9.90486240 30.82311630 6.90764380 127 125 118
-9.89075661 30.83411407 6.90737581 135 134 126
-10.06113338 30.68078804 6.87311792 153 152 149
-10.05271816 30.69347954 6.87095594 169 166 160
-10.03852272 30.70442009 6.87285519 161 161 157
-10.01686096 30.71778679 6.87560177 121 117 111
-9.95762730 30.77610779 6.87264299 145 145 139
-10.06546021 30.66923523 6.92618895 68 69 74
-10.04251194 30.70912933 6.92636824 133 131 125
-10.01708984 30.73468590 6.92495823 132 131 128
-10.00040817 30.75056458 6.92689419 127 124 118
-9.98411369 30.76260757 6.92656517 140 139 135
-9.95785236 30.78061295 6.92273712 128 128 124
-9.93190956 30.79752350 6.92758179 130 129 124
-10.01290703 30.64818573 6.77357101 150 148 148
-10.00529385 30.74866486 6.87273598 140 140 134
-9.98247242 30.76386261 6.87114286 137 137 133
-9.92102909 30.80967331 6.92747784 139 138 132
-9.90696812 30.82070351 6.92612600 134 132 127
-9.89371681 30.83237457 6.92591095 126 123 115
-9.87322521 30.84802055 6.92551184 136 134 128
-9.92982960 30.74037361 6.81620121 150 146 138
-10.04412842 30.66460419 6.84047222 171 169 164
-9.90726662 30.76403236 6.81485701 164 161 152
-10.03419113 30.64572144 6.81673098 137 136 133
-10.02246094 30.65720367 6.81657314 156 155 150
-10.00872135 30.67124748 6.81640482 170 170 164
-9.99541855 30.68148422 6.81288910 164 165 162
-9.95901012 30.71361732 6.81664419 163 162 157
-9.94399738 30.72252083 6.81302309 164 163 158
-10.02855873 30.66894150 6.83669996 168 167 164
-9.89034557 30.77695847 6.81344080 163 162 152
-9.99382210 30.73554039 6.86755514 125 124 118
-9.95329380 30.79061317 6.87069988 146 146 141
-9.94126511 30.80599213 6.87063885 112 115 114
-9.87800121 30.79072952 6.81657982 151 148 141
-10.06757545 30.68865967 6.89206409 113 113 105
-10.04715729 30.71124840 6.89186192 137 133 124
-9.95134735 30.79330063 6.89024496 139 136 131
-9.90049744 30.83201981 6.88816404 147 152 154
-10.05235863 30.69052696 6.89149523 119 115 104
-9.87435341 30.84460449 6.88419104 138 139 136
-10.06583309 30.66661644 6.88703203 103 104 97
-9.99674034 30.66729164 6.79299593 136 135 128
-9.94421291 30.71158981 6.79208994 153 151 145
-9.92226982 30.81454468 6.86901617 146 143 138
-9.88814735 30.83741188 6.86391783 146 148 147
-9.90855217 30.81201935 6.85535192 145 143 136
-9.92014694 30.79207420 6.83137178 151 147 144
-9.88405514 30.82582092 6.83192921 147 146 140
-10.02585983 30.64041519 6.77388287 177 176 173
-9.92992592 30.81232834 6.88447189 133 133 130
-9.91436672 30.81806564 6.88508320 135 135 133
-10.06928158 30.65987778 6.93802881 138 133 125
-10.04754257 30.67564964 6.86807299 155 153 144
-10.01517200 30.74132729 6.89465714 128 128 124
-9.86432362 30.84904861 6.85675192 125 123 117
-9.86736870 30.82930946 6.83460283 133 131 124
-10.00228405 30.69382858 6.83523703 171 170 167
-9.90837479 30.75108719 6.80476522 145 145 137
-10.03414536 30.65537453 6.82894611 158 157 152
-9.97698498 30.70568275 6.82693195 159 158 154
-9.94608116 30.73798370 6.82874584 160 158 152
-9.93553162 30.75314522 6.82982492 171 170 163
-9.92873478 30.76711273 6.82993793 172 167 160
-9.91143513 30.82672119 6.86782694 151 152 148
-9.99457169 30.75271225 6.88327217 143 144 141
-9.90006828 30.79840279 6.83072901 134 130 122
-9.88582039 30.80791283 6.82932711 127 124 118
-9.97032928 30.74050522 6.85044384 158 152 145
-10.03102875 30.69024849 6.86128998 154 152 145
-10.01176262 30.70960808 6.86104488 153 151 143
-10.02159500 30.68418503 6.84553003 175 173 168
-10.05767345 30.69343567 6.92437506 128 127 127
-9.88937569 30.83981514 6.88032484 145 146 145
-10.01933956 30.65194321 6.80000591 140 139 135
-9.92170525 30.79889107 6.85334921 126 124 116
-9.95645428 30.69495773 6.78234911 140 138 133
-9.96472836 30.76095390 6.86056089 123 119 110
-9.98016167 30.68603325 6.80153084 150 149 145
-9.95834827 30.72555733 6.83215809 160 160 153
-10.06284332 30.70018196 6.91174316 132 128 123
-9.93517208 30.72245407 6.80071211 152 152 148
-9.95293331 30.74752808 6.84232712 140 160 165
-9.87762928 30.84447479 6.89952707 130 129 122
-9.93811035 30.78002739 6.84914684 130 128 120
-9.86739540 30.81414223 6.82549095 143 141 131
-9.89396095 30.81571388 6.84399700 124 123 117
-10.00169468 30.72239494 6.86207819 164 161 154
-9.96928596 30.68849754 6.79029512 125 123 119
-9.98217297 30.76374054 6.89936590 140 139 135
-10.05954933 30.66575050 6.86611509 155 155 155
-10.02810764 30.72402763 6.92619610 138 139 137
-10.03221416 30.71469879 6.88917589 106 104 99
-9.93955898 30.79497719 6.85939884 139 138 134
-9.98226833 30.71538353 6.84153891 153 152 148
-9.95890617 30.70107269 6.79891205 131 131 126
-9.92191696 30.73412132 6.80049706 147 148 145
-9.93443680 30.79794502 6.88208103 134 131 124
-9.94499493 30.78984451 6.92464304 124 122 117
-9.88452625 30.82901573 6.85050011 130 128 121
-10.02741814 30.70533180 6.86265182 162 162 157
-9.99195385 30.75058746 6.86355591 141 138 132
-9.89633274 30.82316971 6.86711121 131 128 122
-10.05194092 30.65700150 6.85469818 166 163 156
-9.96172047 30.77801323 6.89349985 142 141 136
-9.91454697 30.81523323 6.82962084 165 158 153
-9.96433258 30.77578354 6.85770321 157 154 151
-9.91487503 30.77278137 6.82627296 164 160 154
-9.97852516 30.75245285 6.85654306 146 144 141
-10.05969048 30.68128014 6.93389320 98 99 95
-10.00256443 30.65938950 6.77672100 129 125 119
-9.94538403 30.70418358 6.77781105 149 147 142
-10.04240227 30.67983627 6.85386086 164 162 157
-9.98813534 30.69511795 6.82492018 162 161 156
-9.90188789 30.82607841 6.85221386 137 140 140
-9.98674679 30.73683929 6.85426903 171 170 168
-9.95425701 30.78717041 6.85435104 142 141 139
