# .PCD v0.7 - Point Cloud Data file format
VERSION 0.7
FIELDS x y z
SIZE 4 4 4
TYPE F F F
COUNT 1 1 1
WIDTH 1339
HEIGHT 1
VIEWPOINT 0 0 0 1 0 0 0
POINTS 1339
DATA ascii
14.00070953 16.2735939 3.86866164
13.96440315 16.25573349 3.87348008
13.99121475 16.29047012 3.85151196
14.01425743 16.29109955 3.85798097
13.95899582 16.28034592 3.84578276
13.9795208 16.30687332 3.83636737
13.95351219 16.24161148 3.88498449
13.93561172 16.27275085 3.848665
13.93018341 16.26550293 3.87530708
13.9060688 16.26387787 3.87748671
13.89660835 16.27910614 3.86790752
13.92857933 16.29330444 3.84070396
13.89046478 16.29317474 3.84273553
13.91623306 16.27724457 3.85192013
13.84566879 16.15658569 3.9119873
13.87196922 16.16749954 3.92356849
13.85442543 16.16758728 3.94201136
13.83135414 16.16718674 3.90242863
13.82123184 16.15377045 3.94172859
13.80844688 16.10815048 3.9592185
13.83477974 16.14242935 3.9234004
13.79829788 16.15155029 3.91542292
13.86096001 16.2328186 3.88792896
13.86977386 16.19708633 3.9051125
13.8441124 16.23257828 3.90160489
13.79867363 16.19335175 3.90278459
13.79816246 16.17310715 3.90510821
13.77736282 16.21153641 3.90011692
13.81397438 16.24829865 3.8985343
13.85824585 16.25115204 3.87700176
13.87758827 16.29590607 3.86488461
13.83810425 16.28006744 3.84836531
13.8300209 16.23429871 3.8681922
13.80202293 16.24389267 3.864043
13.81940269 16.2555809 3.87198234
13.80959702 16.27955246 3.86886501
13.78606415 16.24890137 3.87748885
13.81758308 16.26418686 3.85361457
13.80241776 16.27052689 3.83949304
13.78224373 16.26929474 3.85384226
13.9566021 16.30002975 3.82538867
13.88014603 16.30020142 3.80982924
13.82018661 16.29372406 3.82925415
13.77757645 16.28805923 3.83249497
13.86465645 16.32543182 3.83624291
13.9785862 16.42821121 3.7190969
13.94879341 16.34742355 3.78181076
13.98656464 16.33930206 3.8040874
13.99349403 16.32497406 3.82543802
13.96010017 16.3343277 3.80577445
13.95026398 16.32136536 3.83151937
13.97994232 16.38774872 3.77456641
13.93544388 16.32988739 3.80680227
13.92798805 16.31999588 3.83304071
13.91751671 16.34827423 3.80401063
13.90444183 16.31148529 3.81795049
13.89706612 16.36772537 3.81552505
13.92715836 16.34123993 3.78110409
13.90197182 16.36362076 3.77871013
13.89647675 16.39338684 3.77664208
13.89675713 16.39349365 3.80432057
13.89192009 16.41255569 3.79453993
13.98082924 16.41111755 3.73649716
13.99388695 16.40584946 3.76379037
13.94421768 16.38331985 3.75396752
13.95814896 16.40151215 3.74267244
13.92613983 16.35984421 3.7640264
13.91796494 16.39575577 3.72239041
13.91311264 16.38917923 3.74924111
13.89281082 16.38890457 3.74765944
13.88885117 16.40901947 3.75166464
13.9115715 16.41363907 3.70982003
13.87961388 16.42208099 3.71556568
13.90566063 16.40572739 3.73646832
13.87286758 16.44745255 3.71372962
13.85602951 16.39112473 3.73838305
13.82601547 16.35143661 3.80149555
13.87233925 16.32481766 3.81404662
13.87312126 16.36264801 3.81309891
13.83125305 16.30823898 3.81808329
13.83846664 16.38121796 3.77625084
13.79871368 16.34989929 3.79522014
13.8164463 16.31427765 3.80569792
13.7682972 16.30999756 3.81661797
13.78695107 16.31380463 3.80670428
13.78865433 16.33665848 3.80720425
13.76459122 16.34853363 3.78360438
13.78614044 16.37931061 3.77734733
13.84039879 16.38401413 3.74863935
13.85267067 16.42101669 3.72335434
13.86914444 16.40833664 3.72724915
13.82071877 16.42228699 3.74012899
13.83896065 16.40303421 3.73437214
13.80710793 16.3611145 3.76952004
13.8079319 16.40802383 3.754246
13.77315331 16.39073181 3.76457238
13.84542465 16.4548378 3.71757388
13.81568146 16.44661331 3.74563313
13.81074333 16.4661026 3.74256825
13.86222839 16.47659683 3.73511815
13.8189106 16.45111465 3.71843433
13.78318024 16.45510483 3.71320486
13.78488731 16.4321022 3.75094438
13.7593708 16.43572617 3.7475431
13.78300667 16.46685028 3.73870349
13.74902534 16.47378159 3.72414517
13.7635479 16.12809372 3.92524004
13.72241783 16.12918472 3.93334055
13.73200417 16.10645676 3.95647931
13.75855064 16.14130783 3.90753555
13.73733711 16.14876175 3.90875864
13.69431686 16.15434647 3.91693091
13.6945076 16.12931061 3.93976283
13.66334152 16.13831711 3.93130946
13.74241829 16.21719742 3.88633251
13.7512722 16.16695023 3.89807367
13.72084236 16.16386414 3.90403605
13.70064545 16.18722916 3.89839029
13.68107796 16.17485809 3.90765381
13.66952705 16.15970993 3.91883063
13.73448181 16.1816864 3.8932941
13.72447777 16.2184906 3.87608886
13.71146584 16.20144272 3.88700771
13.74347115 16.25658035 3.86621404
13.75811005 16.23769379 3.87617779
13.74038887 16.27339554 3.83820176
13.75894356 16.26369858 3.84225559
13.71839714 16.24447632 3.8607254
13.69403267 16.21242523 3.88291073
13.68337631 16.19841385 3.89435244
13.6544075 16.20354462 3.88374853
13.67704582 16.23587799 3.86395979
13.70555305 16.2276001 3.87167335
13.67705917 16.26416016 3.840204
13.69291496 16.25418091 3.85112047
13.66527176 16.24862289 3.8513844
13.64110565 16.14296341 3.92613721
13.62995338 16.12814331 3.9511652
13.65265846 16.12427902 3.94299531
13.60198021 16.13694 3.94369054
13.58678627 16.14505768 3.93023777
13.56377602 16.14008331 3.93674541
13.54377174 16.13864899 3.95063496
13.63074684 16.20310211 3.88509703
13.62980843 16.17367935 3.90852594
13.58926201 16.17427063 3.90154576
13.61938858 16.15745163 3.91719127
13.56226921 16.16329193 3.91359115
13.54022026 16.17201233 3.90859413
13.61968994 16.18849945 3.8963902
13.64073181 16.18808365 3.89720321
13.59778976 16.21020889 3.88032532
13.62384224 16.24461746 3.85857892
13.62627411 16.22306061 3.86850643
13.62461853 16.2579155 3.84265256
13.58789063 16.23508453 3.86429691
13.59308624 16.26738358 3.84274626
13.56584167 16.20585251 3.8868835
13.56837273 16.18354034 3.89894843
13.58527374 16.19366837 3.89126873
13.53928566 16.19602966 3.89926028
13.55166435 16.23223877 3.86662006
13.57597351 16.21931458 3.87538671
13.52835083 16.23067474 3.87962556
13.55534172 16.26665115 3.84462285
13.56209183 16.24610519 3.85518074
13.52925682 16.25646973 3.84799218
13.76022911 16.27877045 3.82854867
13.68795204 16.27856064 3.82879066
13.64095116 16.2673111 3.83446026
13.70631218 16.32858276 3.76158881
13.72610664 16.32911301 3.76787496
13.74314499 16.32306671 3.78182602
13.73439598 16.30883408 3.80472589
13.70666122 16.30329895 3.80523443
13.71982193 16.29208755 3.83198547
13.69625092 16.34041977 3.77747321
13.72152519 16.32287598 3.79463053
13.67435837 16.31145096 3.80036306
13.64274979 16.30771637 3.80746722
13.66154671 16.29457474 3.8113718
13.67521858 16.32488632 3.78470969
13.64728165 16.33927155 3.78531408
13.63742256 16.32617569 3.79729605
13.73956871 16.39757919 3.74555421
13.70929527 16.36995697 3.75054502
13.72504997 16.35369873 3.75185704
13.71129227 16.39836884 3.75320101
13.70072746 16.38434219 3.76476359
13.65117264 16.39410019 3.74128056
13.6654644 16.36345673 3.76161051
13.67037201 16.3443718 3.77200055
13.6644783 16.38195038 3.75338292
13.63302231 16.36991501 3.76504421
13.62716103 16.40132523 3.7459476
13.72220802 16.45812988 3.73814988
13.73522186 16.42988968 3.744205
13.68953705 16.41503143 3.74495459
13.69171906 16.44763565 3.73621893
13.73267746 16.50185013 3.71723604
13.7195282 16.48438263 3.72833872
13.69231033 16.48810196 3.71845341
13.65926933 16.46604919 3.7230947
13.64119911 16.41998672 3.73510909
13.63421822 16.45103455 3.72313452
13.62444496 16.43798065 3.73490262
13.66079712 16.48630524 3.71499324
13.60834694 16.39796448 3.75357389
13.61758423 16.31972504 3.79849601
13.61248207 16.29317093 3.81915212
13.61848259 16.2756424 3.82971287
13.58818817 16.31030273 3.81053138
13.60352135 16.35520935 3.78163648
13.56983757 16.34711075 3.78669024
13.59226036 16.34021759 3.79299307
13.58963394 16.37298203 3.77719164
13.54055023 16.32628632 3.79977918
13.55097198 16.28535843 3.82510376
13.57398033 16.29146957 3.82118893
13.55573654 16.306633 3.81327915
13.52845001 16.29203033 3.81892395
13.52970123 16.27200699 3.83478141
13.5681076 16.32269287 3.80187941
13.51431084 16.31765747 3.80394077
13.54208374 16.35467148 3.78220558
13.50979233 16.33690643 3.79427981
13.5111866 16.35861969 3.78163052
13.60831451 16.37614822 3.76953673
13.56979752 16.39165497 3.76065421
13.51435471 16.38395691 3.76352739
13.59681892 16.42763901 3.73883533
13.59363747 16.44881058 3.72970843
13.58410072 16.4107132 3.74993443
13.56313705 16.44926834 3.71885061
13.56383324 16.42894363 3.73788738
13.59194946 16.46651459 3.71626949
13.54200554 16.42095947 3.74194622
13.54048538 16.3977623 3.76045823
13.51264191 16.40555573 3.74886298
13.5351963 16.43579102 3.72614789
13.5001297 16.41896057 3.73403525
13.4998455 16.44264221 3.71498942
13.94767952 16.43465805 3.68677902
13.9374752 16.42131042 3.69861269
13.92616081 16.43299103 3.67104983
13.90567398 16.43136215 3.69959426
13.93478584 16.49488068 3.61542702
13.96497154 16.48363495 3.65120673
13.99100494 16.47998428 3.68612885
13.97751999 16.47357941 3.66508317
13.9453373 16.45802689 3.66110063
13.92021561 16.45064545 3.66112971
13.87444305 16.44981384 3.68615222
13.90069199 16.44988251 3.67815804
13.90169716 16.46471024 3.66408849
13.89765549 16.48044968 3.64942312
13.86899185 16.4886322 3.66948318
13.95443153 16.49548721 3.62598681
13.93922806 16.4756279 3.63680696
13.97764206 16.52606201 3.58876848
13.97684479 16.52476501 3.61661124
13.97987938 16.5030899 3.64032793
13.9571991 16.52415848 3.60605145
13.94117355 16.51686859 3.58860064
13.90685463 16.492733 3.62337899
13.91804123 16.47283936 3.63990736
13.91711044 16.50635529 3.5975368
13.86623573 16.51409149 3.61673403
13.87656975 16.49880981 3.6433351
13.88795662 16.51138306 3.61482787
13.89779663 16.52435684 3.60287738
13.86210251 16.53451157 3.58597994
13.88218689 16.53522491 3.5921104
13.84044838 16.47996521 3.65324926
13.84057999 16.45130539 3.69156075
13.81903267 16.45154572 3.69056964
13.85009766 16.46129227 3.67686939
13.81657791 16.47413254 3.6602838
13.80805779 16.48838806 3.64877534
13.78255844 16.46640778 3.68282795
13.79989433 16.45185852 3.69858932
13.76192093 16.46531677 3.70819855
13.80617332 16.4603653 3.67205882
13.78133965 16.49134064 3.65689254
13.74620438 16.49024963 3.68761539
13.74352264 16.48697662 3.65917063
13.84150314 16.50712585 3.62362647
13.81558609 16.51074219 3.62010765
13.82849884 16.51571655 3.59693909
13.80405235 16.52184677 3.59190702
13.78013992 16.51603699 3.59134269
13.79372597 16.50799942 3.61765885
13.77158737 16.50440979 3.63138843
13.74378967 16.51745987 3.62201309
13.74968147 16.52555466 3.59536457
13.76641083 16.51763153 3.60794806
13.9635067 16.54622269 3.56518674
13.93087959 16.52455139 3.5723877
13.94290733 16.54039001 3.5608387
13.9121666 16.54367828 3.54970479
13.89267921 16.54920578 3.56626558
13.9058094 16.53506851 3.57654047
13.84464264 16.54938507 3.57028008
13.81766701 16.53981781 3.58076715
13.79636955 16.5375061 3.58075452
13.71949005 16.52470779 3.61276579
13.72311974 16.48982239 3.6591723
13.71479416 16.50316238 3.68077564
13.7118721 16.53576279 3.70660543
13.7149353 16.51825333 3.69546294
13.68851662 16.52322769 3.69313598
13.70204163 16.50124741 3.65089726
13.68611336 16.52043533 3.65086341
13.69955254 16.51977921 3.67607117
13.61852074 16.50243378 3.65252233
13.6182766 16.48171997 3.70730639
13.6283741 16.5152092 3.68213773
13.71748543 16.50714111 3.6395452
13.69960022 16.52028656 3.63428903
13.64640045 16.51993561 3.61576891
13.64925194 16.5234108 3.64445567
13.59779358 16.51980591 3.61469293
13.59696198 16.49484634 3.65706682
13.59322548 16.48962021 3.68402624
13.57103348 16.4834137 3.69229817
13.55792046 16.46589279 3.70330954
13.6077652 16.50904083 3.67327404
13.55322266 16.51444244 3.65750384
13.55561447 16.49349976 3.67680025
13.52440262 16.45155334 3.71163702
13.52826881 16.48080063 3.69373465
13.49419594 16.4787674 3.69310665
13.50187492 16.46356583 3.70578456
13.52897835 16.50013733 3.67007875
13.49894524 16.50042343 3.65128136
13.5173645 16.51010132 3.65649891
13.60533333 16.50624466 3.63106179
13.58707619 16.50530243 3.64020443
13.57383919 16.51829147 3.62517118
13.24402809 16.20535278 3.89938402
13.49755859 16.25082397 3.8533597
13.49975586 16.16332626 3.92363071
13.50668907 16.15265274 3.94711232
13.52515984 16.15198898 3.93265963
13.47602844 16.16107178 3.93676329
13.48626137 16.14516449 3.96177793
13.49915695 16.19194412 3.90052223
13.47367477 16.18250275 3.9042201
13.44200897 16.17679977 3.90949559
13.44473457 16.15862656 3.93955851
13.41275024 16.15573883 3.93567729
13.42209053 16.14992142 3.95983148
13.40913391 16.17728043 3.90400076
13.49172974 16.22134781 3.88132119
13.51060867 16.20717239 3.88937664
13.5116539 16.24774933 3.87206364
13.46055031 16.21958542 3.87797999
13.47984314 16.20555115 3.89237976
13.46282768 16.24884796 3.86131334
13.42949104 16.20449066 3.88121939
13.39764595 16.20686722 3.87974048
13.42347908 16.22158813 3.87123966
13.43969345 16.24324417 3.86092567
13.41545868 16.25163651 3.85195088
13.40234947 16.23405457 3.86271834
13.36827278 16.24201965 3.85621691
13.37305069 16.17384338 3.91526508
13.39010239 16.151577 3.95454073
13.34700394 16.15966034 3.94601607
13.34447861 16.17981339 3.90368032
13.33621216 16.16854858 3.92946911
13.31302834 16.16754532 3.93951297
13.28374481 16.16992188 3.9460063
13.31719971 16.19703293 3.90830135
13.30640602 16.18255234 3.91950107
13.27293587 16.19557953 3.90386105
13.36665916 16.20957947 3.88133526
13.3693428 16.18983078 3.89635515
13.3411026 16.20544434 3.89146638
13.34374809 16.23283768 3.8732729
13.30494881 16.23874664 3.87014389
13.32044411 16.21952438 3.88568544
13.29166985 16.20635986 3.89576769
13.2722435 16.21884918 3.87935734
13.28415871 16.2349205 3.86838889
13.5089798 16.26605225 3.84215331
13.46204185 16.27312088 3.83845711
13.427742 16.26802444 3.84097981
13.37639427 16.27668762 3.83951902
13.33012962 16.25824356 3.84946537
13.35686493 16.26860809 3.83910179
13.31071663 16.27070618 3.84706283
13.28196526 16.25668716 3.85333157
13.48644638 16.37048721 3.77073359
13.48493004 16.32354736 3.80341077
13.49368286 16.29011154 3.82693911
13.48703575 16.30649567 3.81653905
13.45413208 16.30333328 3.81941199
13.46479034 16.31761551 3.80800009
13.48840141 16.34922028 3.78570127
13.4466095 16.34704971 3.79127955
13.45777702 16.36206436 3.78025866
13.44029045 16.28481293 3.83006573
13.42214012 16.31424713 3.81337476
13.38798332 16.31036758 3.81863976
13.40015221 16.28471756 3.83596134
13.41874313 16.33364105 3.79399776
13.39540672 16.34577942 3.78189635
13.41470718 16.37168884 3.77240252
13.3799839 16.36427689 3.76611233
13.4757061 16.41024399 3.73763108
13.47130775 16.44791412 3.71579576
13.47949409 16.39122772 3.7571559
13.45557213 16.40127945 3.75098419
13.44424629 16.38603592 3.7622807
13.47690201 16.43000412 3.72800756
13.4482708 16.4319191 3.72332668
13.44895172 16.41782379 3.73856974
13.41042137 16.40522385 3.7455368
13.4348774 16.39891052 3.74928713
13.38230133 16.39225388 3.7521944
13.41807175 16.44054031 3.71867919
13.40777016 16.42663193 3.73020935
13.37949944 16.43423462 3.73012376
13.38480759 16.41611099 3.74160671
13.35564804 16.35627747 3.7737956
13.36734581 16.30831146 3.81666756
13.37662888 16.29508972 3.82984567
13.33250618 16.3000946 3.82478428
13.33527374 16.28010559 3.83592749
13.36329269 16.34168625 3.79019594
13.32895088 16.32014847 3.80910087
13.34892654 16.32234573 3.80073357
13.31803894 16.35105133 3.78535175
13.29963875 16.30100632 3.81889153
13.27850151 16.29763794 3.81765723
13.28573227 16.28223419 3.82948518
13.26476097 16.27903748 3.82827997
13.30340385 16.33131409 3.7958312
13.29184151 16.31564331 3.80694771
13.2597332 16.32292938 3.79621673
13.26719284 16.35092545 3.78127527
13.32830238 16.36498642 3.77391362
13.29194641 16.36655045 3.77598691
13.34205246 16.43448257 3.73205686
13.35565186 16.40195847 3.75245667
13.35556984 16.37664032 3.76268792
13.33034134 16.38815308 3.76781774
13.32025909 16.40488052 3.75479364
13.34759903 16.45991898 3.71655655
13.31393242 16.45685577 3.72117591
13.31324768 16.434021 3.73449111
13.28409386 16.41637039 3.74211097
13.29375458 16.38692474 3.75973582
13.25514603 16.37704849 3.76288438
13.24979591 16.39587402 3.75460482
13.26982498 16.39697647 3.75267792
13.25402641 16.42424011 3.73654842
13.29125786 16.45228195 3.72252107
13.27744675 16.43349075 3.73323584
13.25369072 16.44908142 3.71554923
13.26863098 16.17516327 3.93151975
13.25063705 16.18954849 3.91573453
13.22255135 16.17604065 3.94912672
13.22929764 16.18539429 3.92335367
13.22633743 16.20164871 3.91172934
13.18831253 16.19552231 3.92771578
13.19079781 16.17842484 3.94782972
13.16113472 16.18875885 3.93786573
13.17814445 16.2118721 3.91451025
13.20141029 16.21343231 3.90312338
13.15163326 16.21413803 3.91752958
13.21564865 16.23281479 3.87906623
13.1760025 16.22685623 3.89747834
13.1225729 16.22224045 3.9173286
13.11704159 16.18862152 3.95020628
13.14359665 16.18255997 3.95817876
13.13467789 16.19105911 3.94060922
13.08215046 16.2144165 3.93666649
13.08642101 16.19511795 3.95841527
13.24794006 16.25619125 3.85184622
13.21127701 16.25710678 3.85346603
13.17602539 16.24758911 3.86821055
13.14375305 16.25121689 3.88098645
13.14617538 16.22846985 3.90269637
13.18282127 16.27858353 3.84249735
13.14838886 16.28010559 3.85001564
13.08347225 16.23783493 3.90924382
13.05190468 16.221138 3.94166684
13.0262022 16.22293854 3.94690728
13.05056572 16.23688126 3.92395544
13.04954529 16.2550621 3.91179156
13.0274477 16.26930237 3.91817045
13.02334404 16.25006104 3.92815518
13.04161644 16.27521133 3.90518212
13.01029873 16.29467773 3.91670465
13.11108208 16.27577209 3.86101866
13.1180582 16.23853683 3.89750934
13.11267185 16.25625229 3.88920188
13.08643055 16.26866913 3.88152218
13.1057682 16.29530334 3.84498644
13.08118725 16.29869461 3.85054922
13.06268597 16.27318954 3.88753319
13.07579517 16.25410843 3.89241457
13.0463171 16.29542542 3.88160896
13.03017902 16.30628204 3.89614797
13.01475239 16.32397842 3.88060808
13.0555582 16.30826569 3.85641861
13.04166317 16.32247543 3.84386086
13.01826668 16.32902908 3.85407805
13.036726 16.31549072 3.87007189
13.21923256 16.35438919 3.77521348
13.23992348 16.29605103 3.81890154
13.20396805 16.28559875 3.83356285
13.22965431 16.28211212 3.8302784
13.21811867 16.30494308 3.80965972
13.19888115 16.30049133 3.81875658
13.24090385 16.31526566 3.80278158
13.24209213 16.33750916 3.78763008
13.21763039 16.32606125 3.79562569
13.19644928 16.32336044 3.79750371
13.19684792 16.34641266 3.77897215
13.17263412 16.31327438 3.81464648
13.13849545 16.31347275 3.81230664
13.14532375 16.30110168 3.82837534
13.17546082 16.34243393 3.78021288
13.14263248 16.34596634 3.78496766
13.14915752 16.32803726 3.80101728
13.22765923 16.41359711 3.73726606
13.19217873 16.41371918 3.74128604
13.22479057 16.38446045 3.75756907
13.19844437 16.39536285 3.75758266
13.21615982 16.44649887 3.71913409
13.18310928 16.43868256 3.72317553
13.20644379 16.43314362 3.73044419
13.16075134 16.40800858 3.74564433
13.17021751 16.38363647 3.7638123
13.13551044 16.37347031 3.76713943
13.1333046 16.40170288 3.74862361
13.1476717 16.39015198 3.75644279
13.16085052 16.43943405 3.72707248
13.17207718 16.4235611 3.73446918
13.1637249 16.45716095 3.71621656
13.12089634 16.43172073 3.73865414
13.14137554 16.42642593 3.73899126
13.13106537 16.44570923 3.7272172
13.14537239 16.4653511 3.71667957
13.11268997 16.34218979 3.7893703
13.11974716 16.31450653 3.82084131
13.101758 16.32705688 3.81424379
13.08238888 16.33161163 3.81923842
13.05445004 16.340168 3.81945443
13.06608772 16.32286835 3.83148766
13.09994984 16.36965179 3.77077007
13.12517452 16.35931015 3.77851725
13.07336903 16.36639404 3.78274035
13.09372044 16.34734344 3.79445171
13.04278851 16.36322403 3.79132819
13.00307941 16.35456848 3.82488275
13.02631855 16.34030151 3.82859492
13.01110268 16.3658371 3.79936981
13.00016499 16.3932724 3.77977705
13.09456635 16.39556503 3.76016164
13.11329365 16.38793564 3.76009035
13.07684326 16.38709641 3.76793718
13.0971384 16.43814087 3.73514104
13.07441711 16.40681458 3.75746226
13.10029316 16.41939163 3.745821
13.09975815 16.46756363 3.72085214
13.07505131 16.43350983 3.74273777
13.05750084 16.45693588 3.73218417
13.03670788 16.40123749 3.76416755
13.03760242 16.38188171 3.77566218
13.02924919 16.43358231 3.74532843
13.0508213 16.4207077 3.75393701
12.99682713 16.42080307 3.75370455
13.01640701 16.41581726 3.75642991
13.0046978 16.45261765 3.7273078
13.00650406 16.43421936 3.74221158
13.46300697 16.50141907 3.65927267
13.46430206 16.47785187 3.70205188
13.43426514 16.46237946 3.70839596
13.42951202 16.50188065 3.68579817
13.4391861 16.48956299 3.69827032
13.45496559 16.49036026 3.68524313
13.47296524 16.48971176 3.67625856
13.40030289 16.46244049 3.70709181
13.40069199 16.48347092 3.70055699
13.37054634 16.49108505 3.69368386
13.36904526 16.47105026 3.71042037
13.33684731 16.48804855 3.69833422
13.27638435 16.48006821 3.69298363
13.24587059 16.48721313 3.68410015
13.25362778 16.47076035 3.70108223
13.23298264 16.46956253 3.69504905
13.20979691 16.47521591 3.70132828
13.18605614 16.47399902 3.70518184
13.19516754 16.45517349 3.71211338
12.47539139 16.40135574 3.93294144
12.62689114 16.42201996 3.93211961
13.00216579 16.26771164 3.93024826
13.0066061 16.22700882 3.95172167
12.98520374 16.26015091 3.93777037
12.98462391 16.24349594 3.95333505
12.97119522 16.26362228 3.95220852
12.95751762 16.29095459 3.93712759
12.97943687 16.30065918 3.92619801
13.00723743 16.3134346 3.90617609
12.95186424 16.32566071 3.90526748
12.94859695 16.30583954 3.92589569
12.92803192 16.32444 3.91574335
12.93194866 16.28276825 3.94918633
12.88853741 16.29027939 3.95983124
12.89043903 16.31005096 3.94348812
12.90737438 16.29570007 3.9514699
12.89289474 16.32422638 3.91674066
12.98320198 16.3265152 3.9022603
12.98266506 16.35298157 3.8519311
12.9761734 16.34380341 3.8777616
12.94336224 16.34595871 3.87842917
12.99300671 16.34035873 3.8635726
12.94513893 16.36933136 3.85017848
12.92181683 16.35390472 3.88270617
12.922925 16.33825302 3.8998704
12.88220406 16.35665512 3.88169527
12.92520523 16.36978149 3.86986399
12.88633728 16.37978363 3.85000491
12.85000896 16.31189346 3.95618916
12.86144161 16.34474945 3.91260624
12.85141659 16.33059692 3.93747091
12.83854866 16.36165237 3.95228505
12.82213497 16.37943649 3.95671391
12.83980846 16.36385345 3.91195416
12.82368851 16.40477753 3.92016196
12.81005859 16.42466354 3.9147048
12.803689 16.39749527 3.95038795
12.79808712 16.43396759 3.94379497
12.84827709 16.37154007 3.87417388
12.8504591 16.35763168 3.89111185
12.86181736 16.39054108 3.85006404
12.83600235 16.39949036 3.87812281
12.82031822 16.43920898 3.88983727
12.8331213 16.41812897 3.89512086
12.83607197 16.39988327 3.85080743
12.83059502 16.43603516 3.84726501
12.83458233 16.42047882 3.86812592
12.97485065 16.4394989 3.74457192
12.97416782 16.38924789 3.78960586
12.97730064 16.36136246 3.82923126
12.98900127 16.36209869 3.81239748
12.94073772 16.38060379 3.81882906
12.96217346 16.37248993 3.81418729
12.94958687 16.39306641 3.79352093
12.95414543 16.41011047 3.78112388
12.91772747 16.40678406 3.78070283
12.90943432 16.39493942 3.81979966
12.87248516 16.40558624 3.82525301
12.879879 16.42041779 3.8119185
12.89334869 16.41805649 3.79168415
12.86956406 16.4469986 3.79033709
12.93211079 16.44410324 3.75155282
12.98495197 16.4535408 3.73316526
12.92845726 16.42218399 3.76956367
12.89834404 16.44652557 3.76150513
12.84771538 16.43938828 3.80290961
12.84800053 16.41669083 3.8263185
12.83007622 16.43560028 3.81983328
12.67061424 16.41569519 3.95818448
12.65439987 16.39284515 3.96782947
12.62341976 16.39730072 3.95434499
12.65094662 16.41223526 3.9523592
12.6065321 16.41765976 3.93088031
12.56832695 16.40340805 3.93741989
12.58740234 16.39042664 3.95337605
12.5361557 16.37593842 3.96730018
12.53156471 16.4018631 3.94319439
12.55800629 16.38855362 3.96207428
12.50263977 16.38393021 3.95545197
12.44417763 16.40182877 3.92138791
12.44918156 16.36374283 3.96708465
12.4560461 16.38188934 3.9479506
12.4179039 16.3843956 3.94060969
12.42067432 16.36796951 3.9561727
12.40019989 16.39238358 3.95565414
11.73510647 16.32066727 3.89974523
11.88850689 16.34161758 3.94773555
11.81398296 16.32007599 3.91021705
11.85964489 16.31871414 3.94361115
11.83850288 16.3069458 3.96170878
11.81801796 16.30671692 3.96400404
11.82351494 16.3151741 3.93876243
11.8050518 16.32534027 3.92994595
11.78871918 16.30091476 3.95213699
11.78948116 16.2831459 3.97052836
11.75664902 16.27709579 3.95857286
11.76853657 16.29494095 3.93502831
11.7583971 16.33039093 3.87830472
11.79399776 16.33326721 3.88801169
11.79052353 16.32781601 3.91405392
11.75709915 16.30798721 3.90630484
11.74606991 16.29133987 3.93008327
11.73264503 16.29131317 3.95132756
11.74530125 16.28934479 3.96976829
11.70195961 16.31750107 3.95865321
11.72310925 16.30242157 3.93656683
11.70414257 16.32121277 3.91904378
13.17185783 17.00671768 3.22761345
14.16195107 17.11612701 2.96346021
14.19939232 16.64531708 3.58935046
14.33550835 16.62253952 3.60902953
14.23599815 16.60705566 3.66502929
14.32690239 16.6628418 3.60010767
14.34009171 16.64656067 3.61234021
14.29072571 16.64459229 3.58813953
14.31818581 16.65184784 3.58421278
14.31899643 16.68096161 3.57964659
14.27101517 16.62333679 3.60288072
14.24570656 16.6199379 3.62463593
14.25512695 16.59841537 3.6374588
14.25213814 16.59897614 3.61319256
14.28294754 16.60643387 3.60538912
14.2740097 16.65669632 3.58794141
14.23278236 16.63534546 3.59476256
14.22620964 16.68003082 3.58062816
14.22932816 16.65436935 3.58802223
14.25519562 16.66431427 3.58514333
14.2611084 16.61197281 3.45970273
14.29385757 16.648983 3.54632425
14.29572487 16.62334442 3.55141091
14.30397797 16.63376617 3.56721902
14.29649353 16.68596268 3.54996872
14.29117775 16.71099472 3.54985952
14.30950928 16.70253754 3.56673193
14.28336143 16.60778427 3.52072382
14.28585052 16.63886261 3.53090978
14.26932335 16.6831398 3.51741695
14.2695713 16.68291855 3.57387447
14.26581001 16.71129608 3.55445814
14.23017311 16.71327209 3.55942392
14.24071693 16.69886398 3.56938791
14.27966499 16.66465759 3.51832438
14.27144241 16.70886993 3.52566004
14.26991844 16.61869049 3.49953008
14.26916885 16.65129471 3.50214434
14.27601624 16.5989418 3.4628191
14.2603035 16.64033127 3.45768452
14.24260521 16.64917755 3.46976781
14.25780487 16.63682938 3.48545408
14.23415375 16.67136002 3.46319127
14.25643539 16.68980789 3.4943924
14.25428963 16.66407776 3.48617959
14.24848938 16.70967865 3.48601341
14.24272919 16.68224716 3.47899675
14.25546265 16.76911163 3.46883297
14.25415611 16.74463272 3.52189255
14.26482964 16.7302475 3.54555774
14.27812576 16.74747849 3.53433108
14.22359657 16.74739456 3.53047156
14.22638321 16.73069763 3.54804897
14.25846863 16.75047684 3.4944067
14.25900459 16.72310257 3.50191927
14.22214508 16.74578476 3.50155568
14.21790123 16.77617264 3.49288321
14.23983383 16.76882172 3.49085999
14.23440361 16.71968842 3.46122599
14.24378395 16.81001282 3.46961308
14.25850296 16.79324722 3.46614456
14.21902084 16.78892517 3.47457314
14.2203331 16.81732178 3.46298313
14.20961189 16.60488129 3.66066837
14.16989517 16.58665848 3.64803123
14.20256042 16.59608078 3.63099027
14.20990753 16.63858414 3.61389112
14.22722054 16.62792969 3.62189484
14.17186356 16.60955811 3.61196637
14.17407608 16.64046478 3.59068966
14.13659286 16.63417053 3.5836904
14.15161133 16.6111908 3.61413574
14.14008141 16.59617233 3.62589192
14.10364914 16.63800049 3.59265709
14.12140465 16.61428833 3.60879445
14.05840492 16.57924652 3.59749579
14.03630829 16.57699585 3.58183408
14.2027626 16.67776108 3.56806087
14.18960762 16.66066742 3.57953024
14.17798233 16.68796921 3.56381893
14.11065292 16.63645172 3.55612493
14.12762833 16.69605255 3.54397821
14.14792824 16.64898682 3.57187557
14.15619278 16.69557571 3.55119181
14.10618782 16.69384384 3.53029394
14.18597603 16.73442841 3.52903819
14.207201 16.72605896 3.54136682
14.20425797 16.75826645 3.51851892
14.16769218 16.71059418 3.53934407
14.16283607 16.74201584 3.52274108
14.12932968 16.72405624 3.52078819
14.13847542 16.71026611 3.53229022
14.17770767 16.76147461 3.51155758
14.18252373 16.81894684 3.4681828
14.18811417 16.80080032 3.48997855
14.19317818 16.78166962 3.50045824
14.15230179 16.79296494 3.49019957
14.17105293 16.77850342 3.5007596
14.15526772 16.81845856 3.46208835
14.09729767 16.74265289 3.47900248
14.13458824 16.75620651 3.50122166
14.10674477 16.71985245 3.50980282
14.12097359 16.81738663 3.46494031
14.07291412 16.68924713 3.51699686
14.0603447 16.60834503 3.57265425
14.09528923 16.65394211 3.55157208
14.01290894 16.59727859 3.54732013
14.03513336 16.60113525 3.55840135
14.01758194 16.57820511 3.56888175
13.99509239 16.57398224 3.55774331
14.01544571 16.61420441 3.53363037
14.03486633 16.62595367 3.53770542
13.98410225 16.5943222 3.541152
14.02053642 16.64210892 3.52038884
13.97845078 16.66234589 3.48543787
14.02572823 16.69527054 3.49126959
13.99454308 16.65444946 3.499125
14.07077217 16.75175476 3.46922421
14.06970024 16.70642471 3.50177193
14.04788017 16.72436523 3.48156142
14.04001617 16.74310303 3.46915531
14.0666008 16.77797699 3.46028185
14.01476288 16.70990753 3.47859287
14.01038742 16.73006058 3.46148205
13.97323608 16.70698547 3.45807552
13.98353577 16.69478989 3.47026682
14.68499565 16.64176178 3.32600093
14.94953728 16.67996216 3.35093498
14.95920944 16.71310425 3.33205795
14.9544239 16.66796494 3.36708212
14.92245674 16.6674614 3.33978915
14.88383102 16.68434143 3.33798552
14.87906456 16.67817307 3.36574984
14.8594532 16.6829834 3.3802681
14.85708046 16.70021439 3.36378503
14.87853241 16.70713425 3.34077859
14.87917137 16.7284584 3.32484055
14.85290146 16.7441597 3.3250916
14.79733467 16.67470932 3.32940054
14.84526443 16.66522598 3.39199209
14.83941841 16.67810059 3.37487531
14.78530312 16.6595726 3.34177184
14.9143486 16.77829742 3.25894928
14.93999481 16.72868347 3.32064629
14.91582108 16.72431564 3.31526136
14.95798874 16.75111008 3.30949044
14.93289185 16.74563217 3.30396271
14.92607117 16.76672363 3.29190922
14.90567589 16.76723862 3.28611588
14.88314629 16.78225708 3.28776741
14.89425278 16.74750137 3.29888511
14.85220909 16.77553177 3.30350518
14.8659687 16.76060104 3.31310511
14.93801689 16.80832672 3.20543003
14.95269585 16.80012131 3.26771784
14.87695885 16.8068161 3.2648685
14.86845207 16.79592896 3.29203343
14.85563278 16.81104279 3.27345204
14.94444847 16.81604767 3.2352984
14.90363884 16.80833054 3.23397803
14.93047905 16.79309845 3.24751687
14.90238953 16.83912277 3.21212339
14.91335869 16.82061386 3.22102189
14.92349625 16.83337402 3.20870185
14.91403961 16.8538208 3.19978666
14.88055038 16.81160355 3.23705602
14.89105606 16.79237747 3.26048613
14.86500168 16.84320068 3.24392915
14.86641312 16.82463837 3.26072788
14.87638474 16.8375473 3.21938586
14.86827469 16.8729248 3.20115924
14.8464489 16.86774826 3.23066711
14.88621902 16.84996414 3.20673299
14.78947067 16.77360153 3.2447598
14.78516388 16.69166946 3.30580521
14.80329514 16.70098114 3.30858421
14.78286743 16.71977615 3.28915286
14.73270226 16.70207214 3.27758741
14.76313972 16.66403198 3.31642628
14.75637054 16.68647766 3.29869413
14.72990036 16.67328262 3.30554962
14.73317337 16.65718842 3.32278657
14.76219177 16.71408463 3.26850724
14.7641983 16.74181366 3.25462365
14.75281525 16.76991272 3.23768902
14.73875809 16.73222351 3.25471997
14.73129654 16.76515579 3.23914599
14.77954292 16.80363083 3.22805285
14.82473946 16.79252625 3.26552463
14.80258369 16.85515594 3.20869017
14.76070976 16.82930756 3.20087528
14.71772385 16.7959938 3.21926641
14.71093178 16.8083725 3.20038915
14.73927689 16.80219269 3.21145868
14.70152664 16.72746658 3.26273179
14.69273949 16.69432831 3.28443861
14.7075882 16.67031097 3.30160999
14.71322632 16.65228653 3.31681323
14.66798592 16.66260147 3.30815291
14.6808567 16.67886734 3.2962296
14.72122002 16.68751907 3.28980041
14.67110825 16.71572495 3.27056861
14.63379288 16.66852951 3.292346
14.64392853 16.65456772 3.30936337
14.6110611 16.66069794 3.30004525
14.61050987 16.63895035 3.31683683
14.65479851 16.69507599 3.2818892
14.61730194 16.68939972 3.28395343
14.62950897 16.70495224 3.27191544
14.69148636 16.76266861 3.24321008
14.71330261 16.7424202 3.25054622
14.65845871 16.74172211 3.2485826
14.63272476 16.75606155 3.23811817
14.6010952 16.7158432 3.26096177
14.62135315 16.71921158 3.25658822
14.59694099 16.75292587 3.23894167
14.5968132 16.73423004 3.25026178
14.69207382 16.78435898 3.22596002
14.66098213 16.76950836 3.23512101
14.68672562 16.80225754 3.21109056
14.65365982 16.80665207 3.20324183
14.64101982 16.79056168 3.21531487
14.59614563 16.77634048 3.22139716
14.61506844 16.80046082 3.21044421
14.56637955 16.71398926 3.26226258
14.57985497 16.68872833 3.28561306
14.58514595 16.64863586 3.30658984
14.57548714 16.63629913 3.31902671
14.54520988 16.6447258 3.30748415
14.5602951 16.66389847 3.29602385
14.53554726 16.67468643 3.28512859
14.59116936 16.70314407 3.27343273
14.53560066 16.6990509 3.26751256
14.50997543 16.64201736 3.308882
14.52231407 16.65776825 3.29693341
14.48090172 16.64897919 3.3045013
14.50481987 16.67957306 3.28046155
14.47943306 16.67477798 3.28766155
14.47420692 16.69557953 3.27577686
14.56521034 16.73684311 3.2443862
14.54445648 16.73029709 3.24495387
14.50163269 16.70328522 3.26330423
14.5088501 16.7400322 3.23940945
14.51529694 16.72074509 3.25155473
14.48474503 16.73816681 3.24283957
14.47365761 16.72392654 3.25504851
14.55804443 16.77547455 3.21647048
14.56324387 16.75424576 3.23406339
14.57396126 16.79578018 3.20503211
14.53793335 16.7772789 3.21613479
14.52409363 16.78547668 3.20379972
14.54766273 16.78981018 3.20360613
14.50403595 16.7596817 3.22868276
14.50252914 16.79010773 3.2047863
14.48847008 16.77202606 3.2165091
14.47576141 16.7556839 3.22846127
14.93940735 16.85412216 3.11049795
14.94905663 16.81699371 3.16487813
14.93935776 16.80477524 3.17758942
14.89598656 16.83140564 3.18204188
14.91315842 16.82072449 3.17790055
14.89623833 16.81855774 3.1526072
14.9153595 16.82376862 3.14955425
14.89876938 16.86591339 3.18016434
14.86747551 16.82705688 3.1461165
14.86340714 16.88981247 3.14740491
14.86974907 16.8750267 3.17266846
14.87329292 16.85411453 3.18761969
14.84941864 16.87187576 3.1881206
14.85187721 16.8951416 3.16886711
14.85604858 16.85813141 3.14162946
14.83374596 16.89487839 3.15691972
14.90145683 16.83879852 3.12551999
14.92786026 16.87216187 3.08683395
14.94542122 16.89382553 3.11880732
14.89294052 16.87950134 3.10475612
14.95211792 16.87012482 3.0982399
14.86240959 16.84143448 3.08531761
14.87633324 16.83841324 3.11891675
14.83860397 16.83639145 3.12433505
14.88405228 16.8484726 3.07714176
14.8420887 16.84115982 3.08190489
14.86262321 16.8666687 3.11402798
14.83026505 16.86852264 3.10748816
14.83733177 16.85725021 3.12865019
14.82716179 16.88686371 3.12711382
14.79819489 16.89802933 3.16160798
14.80313492 16.85611725 3.1803925
14.82397652 16.85980225 3.19279885
14.81912041 16.87633896 3.16877055
14.78862953 16.8645668 3.19137859
14.78072548 16.87587357 3.17294049
14.777174 16.89245987 3.15454602
14.73940468 16.82358551 3.19445848
14.7411747 16.8468132 3.17704225
14.76428223 16.85505676 3.18444681
14.71200943 16.83443832 3.1868825
14.7497654 16.88238907 3.16503906
14.72188759 16.89364243 3.14324546
14.71653366 16.86273956 3.16677928
14.82061768 16.85665894 3.07750344
14.7986927 16.89907074 3.11835599
14.81809235 16.90269852 3.08130455
14.82006645 16.87832642 3.08287811
14.92884636 16.84202576 2.99387836
14.90909958 16.8171196 3.01939726
14.89509964 16.83149338 3.05298519
14.91081429 16.8509903 3.06965804
14.92253494 16.83376694 3.03594255
14.9517765 16.87010193 3.05505943
14.93004036 16.86170197 3.05771399
14.86405563 16.82373047 3.04519653
14.88207436 16.81549454 3.02190804
14.83910942 16.81279755 3.02417135
14.86042786 16.81943512 3.01593804
14.89481354 16.83167648 2.99530697
14.90793037 16.84821701 2.9830761
14.92900467 16.87479782 2.95769405
14.94090462 16.85722351 2.98147583
14.91019821 16.88238525 2.95218062
14.87270355 16.83507919 2.98925066
14.8385334 16.83766556 2.98104739
14.84775162 16.82385635 2.99691296
14.86822891 16.8751297 2.95682144
14.88807297 16.85443497 2.97763538
14.84679413 16.87071991 2.9580946
14.81329918 16.82828522 2.99570012
14.81295395 16.80506897 3.0341599
14.82653809 16.79675293 3.05074024
14.80597115 16.79603195 3.06161308
14.78923988 16.79757309 3.04873419
14.79650116 16.8265152 3.05918503
14.77293205 16.81961441 3.01781511
14.79313278 16.89300537 3.0170939
14.81055641 16.89351273 3.05135751
14.79302597 16.84461594 3.04972935
14.79735184 16.87701035 3.03484011
14.78547478 16.86221695 3.01858282
14.78639221 16.83683014 2.99111438
14.81168938 16.8690033 2.9522264
14.76846886 16.84095383 3.00149727
14.77431297 16.86943436 2.99969268
14.78088188 16.89860916 2.99775815
14.80919647 16.84325027 2.97535944
14.76466751 16.85771561 2.9552412
14.7811451 16.85716248 2.97492719
14.76314926 16.87637711 2.98055887
14.75692368 16.89326859 2.96514893
14.84671974 16.91130829 3.14475107
14.79246521 16.91242599 3.08567762
14.82084274 16.9056282 3.1391995
14.76449776 16.9012413 3.13862872
14.78737831 16.9054718 3.1422255
14.81328964 16.91757965 3.10647416
14.76125908 16.91982269 3.11708474
14.7627449 16.89929199 3.1096549
14.77047729 16.90933228 3.08225441
14.74224091 16.92006302 3.07529759
14.74276924 16.92017746 3.13248491
14.75621986 16.93748474 3.10605788
14.73591614 16.93040085 3.10607314
14.70733643 16.91833878 3.1263144
14.74879456 16.90434265 3.08633733
14.73651505 16.95570755 3.08848166
14.73696327 16.97640228 3.07813168
14.72730827 16.96388626 3.10521865
14.69208717 16.97482681 3.08550763
14.71308899 16.97388458 3.08592582
14.8339653 17.08020782 3.00356197
14.81628036 17.0331459 3.01881027
14.76737022 16.92886734 2.9747057
14.79130745 16.91121292 3.05678868
14.81083298 16.91490555 3.06328702
14.80752563 16.93182373 3.04513407
14.80815697 16.95727158 3.04545689
14.79244614 16.93717957 3.07157254
14.78796005 16.93204498 3.01314735
14.79401016 16.98623276 3.01206565
14.77705956 16.9643631 3.05238748
14.79880905 16.96820831 3.02285123
14.79370499 16.985569 3.04075789
14.75720406 16.9824791 3.03395748
14.74925613 17.02048111 3.02011991
14.76840019 16.99681854 3.02141261
14.75267601 16.95221329 3.05119586
14.73692131 16.97674561 3.03503871
14.72580719 16.99045944 3.04501009
14.69152451 16.97438431 3.05673409
14.70437241 16.9908371 3.04453683
14.71683884 17.00699234 3.01760173
14.78133202 16.94636917 2.99130559
14.75551796 16.95661163 2.96558833
14.75984955 16.98638153 2.97722411
14.78295708 16.97235107 2.99589157
14.76773834 17.01613998 3.0113492
14.75384712 16.9119339 2.95822287
14.74314308 16.98552704 2.94994259
14.69799232 17.01241302 2.99344492
14.68844795 17.00018311 3.00621676
14.74081612 17.01029205 2.96131158
14.75196838 17.05234146 2.95171738
14.75200844 17.05214691 2.98019028
14.77606392 17.05493164 2.98133779
14.79456902 17.05033112 3.00134635
14.76180267 17.03656006 3.00780368
14.7243824 17.04648209 2.95488
14.73423386 17.0294075 2.99171066
14.7152462 17.031353 2.97848606
14.69000626 17.03220367 2.95064092
14.66719246 16.82390594 3.19131088
14.67540169 16.87756729 3.14949727
14.68370438 16.84494781 3.17989564
14.65544319 16.85202789 3.17465353
14.69947243 16.8838501 3.14288735
14.69617844 16.86086655 3.16776347
14.58835411 16.81420135 3.19330525
14.61010361 16.86978531 3.15743828
14.64120865 16.8338356 3.18647051
14.62161255 16.82884979 3.18733001
14.62236595 16.85770798 3.17067909
14.59964371 16.85631943 3.16991425
14.63391876 16.87248611 3.15840411
14.59585571 16.88036728 3.14809299
14.58211708 16.86272049 3.15999556
14.56159401 16.80766296 3.19182372
14.53341866 16.80066681 3.19459653
14.5702076 16.87744141 3.14564943
14.5571785 16.82787323 3.1811223
14.57972717 16.83083725 3.18072653
14.52827454 16.82316208 3.18081641
14.55495644 16.85785675 3.15726376
14.52256012 16.84160614 3.16527772
14.52462769 16.86894608 3.14724278
14.49595261 16.80738831 3.18910384
14.4713459 16.80030823 3.19489622
14.49342346 16.82880783 3.17032719
14.49274635 16.84631348 3.1579473
14.47922134 16.86258316 3.14571881
14.46684265 16.84661484 3.15782046
14.67444611 16.95225525 3.09687424
14.64842033 16.9482193 3.10017204
14.64755058 16.88993835 3.1464417
14.62522507 16.8891449 3.14576435
14.67119026 16.92022324 3.12185454
14.68360138 16.93613815 3.10966206
14.63704681 16.90428925 3.13348627
14.65860748 16.90414047 3.13404894
14.66114235 16.93517685 3.10895514
14.64902306 16.91966248 3.12123656
14.63563538 16.93140793 3.11200452
14.66903114 16.97140884 3.08566475
14.63875771 16.9654808 3.08583164
14.61725998 16.90775681 3.13747859
14.60383224 16.92057037 3.12284327
14.57348251 16.9070549 3.1312921
14.57760239 16.93706512 3.11350918
14.60325813 16.97008133 3.08926654
14.60422707 16.94659424 3.10796976
14.57515717 16.98628616 3.0764401
14.51325226 16.9344368 3.10379314
14.45875359 16.86886215 3.14135194
14.54284859 16.91081238 3.12381864
14.52646637 16.88969421 3.13526249
14.51109314 16.90368271 3.12271881
14.53523445 16.96765137 3.08312416
14.56207657 16.96938324 3.08827567
14.54685974 16.94976807 3.10025549
14.52513504 16.94983292 3.09154487
14.48375893 16.93070602 3.10095835
14.48273659 16.89504623 3.12708306
14.45296288 16.8911705 3.13847351
14.47002029 16.91336823 3.1128912
14.45118141 16.92111206 3.12513971
14.47667885 16.954319 3.08649349
14.50132561 16.95339203 3.08968496
14.47372437 16.97438049 3.07913589
14.45664978 16.95223618 3.09049606
14.44882393 16.9721489 3.08220768
14.44948006 17.00131607 3.08798814
14.67521667 17.01304245 2.9769299
14.66923904 16.97542572 3.03200483
14.67115211 16.97438431 3.05734968
14.65974045 16.99225998 3.04632044
14.65953255 16.99212646 3.07498002
14.62527657 16.99850845 3.06433105
14.65839386 16.99081421 3.01743412
14.65418243 17.0112114 3.03007746
14.64856148 17.00460815 2.97215366
14.66482162 16.99927521 2.98983383
14.64847374 17.00421143 3.00047636
14.65972519 17.0189743 2.95960784
14.63482666 17.02951431 3.02482843
14.66227531 17.02122498 3.06011033
14.64212036 17.02019882 3.05279088
14.6244278 17.01608276 3.03745699
14.61119652 17.03302765 3.02488875
14.57013321 17.01283646 3.0460813
14.59191513 17.00805283 3.05034304
14.58902931 17.03720093 3.03488445
14.58930779 17.0676918 3.01857042
14.56938934 17.04196548 3.02962685
14.5715332 17.07714081 3.01630998
14.63870621 17.03475571 2.99679852
14.63218689 17.06029892 2.98528528
14.64112854 17.03824234 2.95416617
14.63495445 17.06414032 2.95732951
14.62752151 17.08293533 2.96539712
14.58958435 17.06832123 2.98994064
14.59631157 17.04685593 3.00742769
14.60919571 17.05913162 2.99108481
14.60262299 17.08487701 2.96333551
14.55994225 17.09606552 2.99481225
14.57627678 17.08351898 2.98863721
14.56016731 17.0868988 2.96500731
14.55937386 16.99458313 3.05447888
14.55039406 16.98725891 3.07138872
14.52999115 16.9905014 3.06595755
14.47860527 16.990448 3.06734776
14.49614143 16.97947693 3.07574701
14.51303101 17.05576706 3.00690317
14.54946899 17.01623917 3.04062223
14.50626755 17.01610184 3.05628085
14.52625084 17.01885605 3.05178881
14.49686813 17.03453064 3.04712415
14.54111099 17.03775787 3.03993511
14.51629448 17.03928375 3.04507661
14.5505867 17.0736084 3.02072096
14.49553108 17.06144333 3.02445245
14.48297691 17.04511642 3.03649473
14.43682289 17.00790405 3.04631495
14.46207047 17.01796722 3.04747033
14.44154358 17.03463364 3.02950811
14.46276283 17.04154205 3.03638196
14.4526062 17.0490799 3.01705527
14.54032326 17.09111023 2.99704647
14.52518272 17.10015488 2.98639965
14.51071358 17.08129501 2.99834132
14.5267849 17.10248566 2.95799923
14.49820518 17.10879517 2.95300508
14.49855423 17.10894012 2.98171973
14.45842934 17.09339523 2.95238853
14.47153473 17.07372284 3.00588751
14.48378754 17.08971024 2.99360418
14.45293236 17.08583832 2.99438334
14.43743706 17.0656395 3.00612259
14.42983055 17.09422684 2.98811436
14.45732498 17.10305023 2.97609782
14.44223976 17.11062241 2.96154618
14.42090416 17.13429642 2.95566678
14.18414688 16.83534622 3.39727879
14.43380737 16.6435318 3.3392787
14.41232872 16.67345428 3.40154004
14.41139412 16.63996506 3.39616442
14.39569473 16.61954498 3.43561864
14.3858757 16.63949203 3.42487574
14.36699867 16.61489105 3.43537164
14.38271523 16.66099167 3.39557528
14.35616302 16.62680817 3.41885185
14.38705444 16.69054031 3.39247036
14.35600281 16.70217514 3.3932898
14.41754341 16.62255478 3.36482096
14.43641663 16.67542648 3.36145687
14.44390488 16.62898254 3.35229921
14.43434525 16.67304611 3.33300495
14.42850113 16.69473648 3.33369851
14.43144226 16.69822311 3.36259842
14.41764641 16.73020554 3.34146833
14.40186691 16.6279335 3.38018775
14.40749168 16.69250488 3.3718617
14.38452148 16.70576096 3.36595035
14.37664032 16.72874832 3.38298941
14.40375519 16.76387787 3.3454845
14.37284088 16.75638962 3.36778545
14.37802887 16.79262543 3.36713552
14.35359001 16.76105118 3.37674618
14.34374809 16.78035355 3.3758316
14.38239098 16.73637009 3.35570192
14.37571144 16.78990936 3.3382895
14.36914444 16.81342697 3.33797979
14.36015129 16.80160141 3.36472321
14.34978676 16.82152176 3.35795379
14.35470772 16.8482399 3.33607912
14.32091522 16.71896744 3.38477039
14.33233261 16.62024307 3.42481923
14.29568481 16.62438583 3.43836784
14.30624771 16.60473251 3.44983435
14.31912231 16.65480423 3.40044594
14.34588623 16.65597153 3.40086746
14.29223061 16.64810181 3.4188323
14.30030441 16.66291046 3.39630461
14.30702591 16.7009964 3.3962779
14.28617287 16.70588684 3.40748119
14.2723465 16.62653351 3.44776607
14.27352142 16.65758133 3.43199301
14.2706604 16.6858139 3.41864157
14.25619888 16.70012283 3.42507148
14.2497921 16.6822052 3.43660164
14.25387192 16.66395187 3.44370079
14.22539902 16.70820236 3.44533443
14.27247047 16.72137833 3.40007758
14.31497574 16.74322891 3.38460684
14.27768898 16.74828339 3.3925736
14.302145 16.72656631 3.39634657
14.23020744 16.73675156 3.43532991
14.23055267 16.75738144 3.43273211
14.2386837 16.76776123 3.44814539
14.25178146 16.74255371 3.42215109
14.25917244 16.72415543 3.41734862
14.25986862 16.77549744 3.3988328
14.24248505 16.77293396 3.42087936
14.23623085 16.81165314 3.43537712
14.22987747 16.79238129 3.42441678
14.21566391 16.81156921 3.43401146
14.24356461 16.81023788 3.41284943
14.25662613 16.83834457 3.41091728
14.24838448 16.82780075 3.39498639
14.21315002 16.8341217 3.40998268
14.31582451 16.77746964 3.37994051
14.29587555 16.77186584 3.38184237
14.32401848 16.80842972 3.35876131
14.27171135 16.81128693 3.36973977
14.29486465 16.79869843 3.37366295
14.26832581 16.8428421 3.36081219
14.29320335 16.81898499 3.36260128
14.31850052 16.85193253 3.33894181
14.3192997 16.830513 3.34967732
14.27168083 16.76860428 3.38344383
14.21244431 16.83388901 3.33881927
14.23867035 16.84207535 3.36752796
14.21796799 16.84066391 3.38240123
14.43843842 16.73324585 3.24992824
14.45147896 16.63903046 3.31092262
14.4459877 16.65943527 3.29901099
