# .PCD v0.7 - Point Cloud Data file format
VERSION 0.7
FIELDS x y z
SIZE 4 4 4
TYPE F F F
COUNT 1 1 1
WIDTH 365
HEIGHT 1
VIEWPOINT 0 0 0 1 0 0 0
POINTS 365
DATA ascii
9.33458233 30.63459015 5.51276207
9.31616783 30.64222336 5.51330996
9.24134541 30.66358948 5.51628113
9.33015537 30.6379509 5.4974699
9.27724934 30.6517086 5.50981283
9.28961086 30.64640427 5.55469894
9.34094524 30.63140678 5.53899908
9.30145168 30.64320755 5.53771591
9.26974201 30.65279388 5.52800083
9.35782146 30.62246895 5.5133729
9.29313946 30.65038681 5.51477003
9.30640316 30.64684868 5.47937202
9.34709358 30.62651634 5.52390909
9.27205467 30.65683746 5.39679098
9.21266747 30.67140198 5.50229502
9.28614616 30.65034485 5.49493313
9.24020863 30.6639595 5.48583508
9.21837807 30.66892052 5.48616695
9.26573467 30.65496826 5.47685099
9.2577076 30.65979958 5.50055313
9.21193981 30.67344475 5.46648121
9.35680676 30.62317276 5.54267597
9.3109293 30.64494705 5.49688005
9.27071953 30.6561718 5.49229383
9.27490139 30.65649414 5.44360018
9.20823574 30.68009377 5.44262314
9.22691917 30.66862297 5.46370077
9.31992722 30.63971519 5.52859879
9.26058865 30.66448212 5.41825819
9.20315647 30.67906952 5.49234581
9.22972965 30.67473412 5.40859699
9.27777195 30.6546917 5.46430206
9.24940014 30.66804314 5.39835119
9.22202206 30.67953682 5.36171293
9.31984234 30.63834572 5.54701996
9.37093353 30.61768341 5.53984022
9.28308296 30.65086937 5.53717995
9.23997593 30.66371727 5.47061396
9.25561619 30.65828323 5.53083515
9.28224373 30.65135765 5.47851086
9.20240307 30.67855453 5.51076508
9.27189922 30.65820885 5.42614698
9.23424625 30.69811058 5.5506258
9.36247635 30.62065887 5.52763081
9.43702126 30.57727623 5.58376694
9.24337578 31.17805672 5.66218615
9.24222088 31.1592083 5.65183592
9.06627655 30.78537941 5.4690938
9.13988495 30.73560715 5.48808622
9.18294334 30.68932724 5.46682692
9.19567013 30.68271446 5.45630217
9.11478519 30.74612045 5.44934082
9.1727972 30.70214462 5.49066591
9.15719795 30.72024345 5.49162006
9.10273457 30.76165199 5.49164104
9.18249321 30.69164085 5.44515181
9.18089676 30.69858932 5.42790508
9.1382103 30.72854805 5.42699909
9.08621025 30.76081467 5.4138298
9.08841991 30.77661133 5.48930311
9.11613941 30.74827957 5.37886095
9.07005024 30.77967644 5.37025499
9.07588673 30.78557014 5.35762405
9.17107868 30.70473671 5.44179487
9.13481331 30.75240135 5.51332808
9.16001987 30.72940063 5.50828409
9.07037544 30.80607986 5.36557579
9.19435024 30.69289017 5.5043211
9.17263889 30.71721649 5.50302792
9.12671375 30.91917229 5.40905809
9.12819767 30.91198349 5.38719606
9.10083961 30.76010323 5.47523022
9.08376312 30.7784214 5.4750452
9.06890583 30.81607056 5.39620686
9.1246748 30.74125099 5.39639091
9.08751583 30.83876419 5.36610508
9.07612228 30.8396492 5.40476513
9.09693718 30.76111984 5.45880699
9.07762718 30.81860352 5.35753489
9.08149624 30.77383041 5.45853186
9.09093475 30.8956089 5.4818759
9.07393932 30.83938026 5.42095995
9.14753819 30.71935654 5.4368968
9.120224 30.74205589 5.43532991
9.10066891 30.90745735 5.50867081
9.12025166 30.93517876 5.51024818
9.06607437 30.80280113 5.38703012
9.1368084 30.92700195 5.39231205
9.07403278 30.86021233 5.44543982
9.10068035 30.89622116 5.45079613
9.112257 30.90654373 5.42331982
9.06962872 30.82632828 5.4106431
9.0884161 30.85751915 5.40359497
9.14200878 30.7387085 5.50346518
9.08822441 30.8976841 5.49920177
9.07995701 30.88150978 5.48103285
9.10429096 30.91018867 5.48283005
9.11923409 30.93283272 5.46778488
9.1202631 30.89620018 5.40272093
9.10634995 30.88804626 5.39649296
9.08115005 30.85057068 5.43025494
9.12775135 30.92702675 5.44841909
9.1318531 30.90094948 5.35662508
9.07272434 30.82172394 5.37479877
9.1232233 30.94156456 5.49317122
9.10915184 30.90974808 5.45477819
9.10435009 30.87395287 5.36234808
9.09517288 30.85296631 5.3526969
9.09796619 30.8802433 5.42960215
9.12407017 30.90045166 5.37692881
9.09334564 30.87099838 5.39874315
9.07805634 30.84549141 5.45496702
9.09881496 30.88222122 5.41340017
9.07115364 30.77936745 5.42242289
9.11843109 30.7546978 5.504035
9.09805584 30.8983593 5.46595383
9.08840179 30.86309433 5.42221403
9.14571667 30.92006683 5.35881281
9.06857491 30.86844444 5.47368622
9.07757378 30.85459518 5.41501617
9.08158112 30.7996521 5.35499382
9.14249611 30.71876144 5.23900604
9.14769554 30.64657974 5.11121082
9.09006119 30.76074409 5.33144283
9.08243656 30.7736454 5.22614193
9.05797386 30.88397408 5.22931719
9.0893383 30.75121689 5.15411377
9.13736439 30.72032928 5.25730419
9.04511547 30.88352394 5.22008991
9.09720135 30.82686615 5.31620884
9.07851791 30.77079582 5.2802062
9.15507698 30.70359421 5.18370485
8.97201538 30.8000412 5.18435621
9.16813755 30.68333817 5.14022779
9.08357334 30.80101776 5.30624008
9.12401009 30.86019516 5.30846214
9.16430759 30.70262337 5.20251894
9.18567753 30.68487549 5.19312
9.13379097 30.72140312 5.19093609
9.03680992 30.80117607 5.19246578
9.05750656 30.84639931 5.22173023
9.10542297 30.73804665 5.25975323
9.09332848 30.75994492 5.17950201
9.03500748 30.78869629 5.17900991
9.08520985 30.78006363 5.25575876
9.18701172 30.68447304 5.17687178
9.09687424 30.84321785 5.33728886
9.11586189 30.87873077 5.33905888
9.14684105 30.92362595 5.34049606
9.10917377 30.85280609 5.32937098
9.13278484 30.89190292 5.32274199
9.14827061 30.91500282 5.31533194
9.11468506 30.84600067 5.30442476
9.13968945 30.88621902 5.30548811
9.10350418 30.82757759 5.294765
9.13102531 30.86976814 5.29707098
9.1247797 30.85382843 5.28768015
9.10673046 30.83003616 5.27867413
9.1298008 30.87976074 5.27992201
9.08597565 30.80274773 5.26837206
9.0978241 30.83401871 5.26104307
9.16157913 30.69623756 5.17181778
9.05817127 30.86622047 5.2277422
9.17447186 30.68563461 5.16444492
8.99682522 30.85670471 5.20324707
9.16402245 30.70259285 5.25138092
9.09391403 30.8132019 5.29722786
9.11679173 30.75266266 5.31384611
9.10980034 30.7440033 5.20362186
9.07907486 30.78775406 5.27961922
9.09391117 30.81451035 5.28097391
9.11953545 30.74781227 5.28667021
9.10528469 30.86359596 5.34471989
9.13172436 30.72975349 5.27362823
9.0719986 30.79069519 5.33371592
9.06430912 30.90268707 5.22466993
9.0882864 30.82271767 5.3341918
9.15798092 30.9089489 5.34597015
9.07672977 30.86008072 5.22832918
9.09682941 30.75865364 5.20567417
9.07266331 30.88716316 5.21914721
9.14986897 30.70920944 5.19668198
9.14395142 30.86878967 5.27910709
9.16771221 30.87770844 5.27272511
9.16616917 30.88608742 5.25877714
9.15449524 30.86593056 5.25664902
9.09534073 30.74672127 5.26827288
8.98017883 30.82575035 5.19518423
8.99912262 30.87091827 5.20916891
9.15948772 30.69176483 5.15097189
9.06004143 30.93241882 5.22967196
9.011693 30.91516113 5.20440483
8.99389553 30.93290138 5.20091677
8.9711647 30.8889904 5.20961905
9.02781677 30.92778587 5.2075901
8.95121574 30.90640259 5.20060205
8.92765331 30.90984535 5.15955114
9.20355797 31.01104927 5.43431997
9.14649773 30.94283867 5.392066
9.21986866 31.03192329 5.39755917
9.13050175 30.95698166 5.5145359
9.23826313 31.04782867 5.43350983
9.26080227 31.0751152 5.43736696
9.13387299 30.97201729 5.51509523
9.21031189 31.00780296 5.36716795
9.23889923 31.05909538 5.37085915
9.23588276 31.03626633 5.41788387
9.20214844 31.00983429 5.40599012
9.21642971 31.0280056 5.43532085
9.28153419 31.09122849 5.41151285
9.15270901 30.98551559 5.55208302
9.2068119 31.0037632 5.38537502
9.23773956 31.04722214 5.38351202
9.14274597 30.98179817 5.53745317
9.21126938 30.98925781 5.36342907
9.14636803 30.9845295 5.51161194
9.16994476 30.97657776 5.45479012
9.15633011 30.98258209 5.48698378
9.18170166 31.01345253 5.48888493
9.13472462 30.95462608 5.47662878
9.17545795 30.99751472 5.47949409
9.16417789 30.99863815 5.5572629
9.15004635 30.94995689 5.44454193
9.14765072 30.96333122 5.4698
9.25463295 31.06882858 5.41630316
9.15746212 30.93477058 5.36187792
9.23550129 31.01376343 5.37488079
9.2513113 31.02748489 5.36939478
9.196064 31.02462006 5.47240782
9.1339922 30.96528625 5.53120279
9.28436089 31.01710129 5.60939407
9.12800694 30.94681931 5.52718306
9.15783024 30.99625015 5.51240778
9.23126698 31.05345154 5.45293093
9.13579559 30.96241951 5.49426889
9.16262054 30.99855423 5.49529123
9.16645813 30.97829056 5.53289413
9.16361046 30.97994423 5.46983099
9.1563797 30.96595573 5.45176506
9.16149426 30.97291565 5.50321579
9.216856 31.01582527 5.40458584
9.23682117 31.02862167 5.38838387
9.26249313 31.05559158 5.39018822
9.25898838 31.04317665 5.38100815
9.27154636 31.06122971 5.37333679
9.24935341 30.99700928 5.36302996
9.25448895 31.04525948 5.40477705
9.27264786 31.07462311 5.40851212
9.29901028 31.05201912 5.62182999
9.20797062 31.03097916 5.42311192
9.29227066 31.09695244 5.43274784
9.24441242 31.06230927 5.44068384
9.2494669 31.03303146 5.39554024
9.28525734 31.07203484 5.39375114
9.29216385 31.06635094 5.37649584
9.30108738 31.08158493 5.37403011
9.29695797 31.10312462 5.36903191
9.16265297 31.00013542 5.54095316
9.26901436 31.08148956 5.42484808
9.29346657 31.09777069 5.40349483
9.15933418 30.94180107 5.37626982
9.17078114 30.95072174 5.36829901
9.25089455 31.04779625 5.36451483
9.1391468 30.9385376 5.40902185
9.14957714 30.98984909 5.52601099
9.19764137 30.99517059 5.37498379
9.2641573 31.09702873 5.44028997
9.16873169 31.01440048 5.5079298
9.23953724 31.11542892 5.55926895
9.21356964 31.04795837 5.47377586
9.192029 31.03120804 5.49849319
9.23965073 31.14743042 5.61990404
9.26459026 31.12260818 5.55397701
9.19534874 31.04374313 5.57500505
9.26056767 31.12599945 5.4659338
9.19688797 31.05308914 5.54383421
9.2234211 31.06678009 5.49968481
9.24674511 31.12792397 5.55231094
9.24228859 31.13972092 5.5861268
9.22027874 31.08103943 5.5477438
9.2481041 31.09701157 5.47656107
9.18033409 31.03056908 5.56098986
9.26305771 31.13747406 5.43703413
9.23924255 31.11235428 5.53636312
9.17276573 31.02315903 5.53223515
9.23380089 31.10402489 5.55111217
9.25657845 31.09117126 5.45827913
9.20718956 31.06664467 5.54028988
9.18686199 31.03414536 5.5222578
9.20247746 31.05462646 5.52346992
9.21724033 31.07444382 5.52462816
9.23065186 31.09316254 5.51701117
9.22779846 31.09375 5.53320122
9.20646667 31.04800987 5.49846697
9.23414612 31.08480835 5.49954224
9.25635242 31.09397697 5.51482487
9.22484493 31.09016418 5.55904722
9.20332241 31.03583527 5.48062086
9.25214863 31.10988235 5.49337721
9.24077034 31.07745361 5.4637661
9.25440216 31.12169266 5.59589291
9.27264595 31.10934067 5.48116589
9.25743771 31.16135788 5.62427902
9.28899479 31.12482452 5.46706295
9.28336525 31.10660172 5.45437622
9.29424858 31.11923981 5.45300198
9.28606224 31.11140442 5.43941498
9.20055103 31.05880356 5.56803703
9.27384186 31.0997448 5.60367489
9.17638683 31.03155518 5.54565096
9.28782845 31.11392784 5.37982416
9.21040535 31.07336235 5.55907297
9.27098274 31.09670639 5.40146112
9.27476025 31.09700394 5.42551708
9.1894846 31.04735374 5.55748987
9.17229271 31.01323318 5.55365992
9.22557259 31.06144524 5.46595478
9.2625103 31.10820961 5.45899916
9.23183632 31.08018684 5.48411322
9.14746094 30.9965229 5.54240179
9.25195217 31.07650757 5.45116282
9.16525555 30.92567444 5.35107994
9.29953861 31.04982758 5.31116915
9.24734497 31.01458359 5.32977104
9.23816967 31.02806854 5.3297739
9.23422909 31.00566673 5.32029819
9.2597971 31.0241127 5.27624321
9.17672539 30.94683838 5.30000877
9.20551109 30.9803791 5.30212498
9.2084322 30.97598648 5.35425282
9.30160236 31.07348061 5.31300211
9.29564571 31.03985023 5.29987001
9.21884727 30.95366859 5.31278181
9.28579235 31.02800179 5.29696321
9.20897198 30.93630791 5.31297922
9.20044422 30.93234253 5.30057287
9.26675797 31.00615692 5.279284
9.21324921 30.94506645 5.28950596
9.25545216 30.98904419 5.27725601
9.22887421 31.00437164 5.35588312
9.18219852 30.97612 5.35318422
9.23273563 30.9616394 5.2777319
9.20351791 30.93190765 5.27896404
9.21354294 30.94247818 5.27315283
9.22066212 30.95491219 5.26836205
9.30526829 31.11095619 5.35873079
9.30330086 31.08876228 5.35911608
9.29706573 31.06323242 5.35923195
9.28268147 31.0712471 5.35669613
9.17874336 30.96644592 5.33104992
9.28032589 31.08867264 5.35274315
9.30841637 31.09407997 5.34318209
9.15169811 30.93984222 5.34657907
9.19487 30.96938515 5.3231039
9.30308819 31.07064438 5.34665203
9.20632076 30.92988968 5.25947285
9.24584484 31.06443596 5.3473978
9.21252441 30.97353745 5.31959677
9.16263294 30.92617035 5.29885483
9.24382782 31.04081154 5.34448099
9.28697395 31.04973793 5.33671999
9.1883173 30.95594215 5.30942678
9.26459312 31.12038422 5.33995485
9.26417828 31.09523582 5.3305459
9.2539959 31.11344147 5.33172512
