# .PCD v0.7 - Point Cloud Data file format
VERSION 0.7
FIELDS x y z
SIZE 4 4 4
TYPE F F F
COUNT 1 1 1
WIDTH 153
HEIGHT 1
VIEWPOINT 0 0 0 1 0 0 0
POINTS 153
DATA ascii
9.30400181 31.04990196 6.53537607
9.281147 31.06917953 6.52737904
9.35722923 31.01839256 6.49756908
9.34000969 31.03521919 6.49625111
9.32183361 31.04851341 6.48827791
9.32425976 31.02597427 6.57680511
9.28185272 31.06293488 6.5500412
9.25745773 31.07852936 6.61247396
9.3199892 31.04437637 6.50329113
9.30678844 31.06149483 6.47825098
9.33842373 31.04356575 6.48338699
9.26017189 31.07645035 6.59514904
9.34782314 31.03163528 6.48235083
9.2863369 31.05567551 6.61301422
9.34597492 31.0247879 6.50923586
9.30740643 31.05518913 6.50307989
9.29537773 31.05284882 6.5481391
9.22839928 31.1173439 6.50376415
9.20902443 31.16855431 6.56957197
9.22618675 31.14356995 6.60758591
9.21451378 31.12849426 6.49807882
9.20272064 31.16217613 6.55175781
9.22979355 31.12248421 6.48332882
9.27957344 31.09805107 6.47816277
9.24923706 31.08848 6.57548904
9.23315525 31.13669777 6.62614298
9.23779869 31.10303497 6.59823799
9.21229458 31.13632774 6.47974396
9.23853207 31.1060791 6.52667093
9.18496323 31.19766998 6.50206518
9.19917488 31.14808655 6.47627783
9.20131016 31.13888359 6.51303482
9.19987297 31.1404438 6.49455595
9.18209839 31.16640472 6.47609377
9.20084381 31.21964264 6.48052311
9.24269295 31.14562416 6.64850378
9.31490231 31.06640816 6.4635148
9.3418932 31.04069519 6.46389818
9.32903481 31.04992485 6.4658041
9.29892635 31.08006477 6.45998716
9.28639412 31.09230995 6.46307516
9.32925606 31.0621357 6.37600899
9.31215954 31.07765198 6.36705589
9.33667564 31.04893112 6.44436598
9.29523468 31.07309914 6.47376013
9.07314682 31.25707817 6.37860489
9.15332413 31.18883514 6.34738684
9.1832304 31.16570091 6.42290211
9.23127079 31.13834763 6.37196684
9.21488476 31.15032768 6.37380505
9.147048 31.19503212 6.37011194
9.06403732 31.26937675 6.41441822
9.0780592 31.25134087 6.3938508
9.11314774 31.23684311 6.23522186
9.19421577 31.15510368 6.44586086
9.26660728 31.1121254 6.33357811
9.09915257 31.23331642 6.37031317
9.26606846 31.11437988 6.31407022
9.10331917 31.2268219 6.34097719
9.08098507 31.25203323 6.33859777
9.13253689 31.2070694 6.3633399
9.17154884 31.18427658 6.46530294
9.16656208 31.17871857 6.39434719
9.06450653 31.26690865 6.39373302
9.07215977 31.26033974 6.35367489
9.15957928 31.18278885 6.36702394
9.17422295 31.17355156 6.358675
9.17719746 31.1729641 6.31859493
9.09551716 31.24255371 6.29113913
9.12761879 31.21140671 6.3437109
9.06430817 31.27062225 6.32866287
9.26485252 31.10165024 6.47005892
9.1320734 31.21331406 6.29290009
9.21600437 31.13640976 6.46360588
9.08618641 31.24501419 6.32123709
9.12016106 31.22598457 6.28082085
9.0746851 31.25805092 6.32004595
9.11587048 31.23214531 6.25040722
9.11702633 31.23564339 6.21036816
9.2075119 31.15552521 6.36061716
9.09462357 31.24054527 6.308424
9.05785561 31.27374649 6.30459213
9.1074791 31.23262596 6.29026318
9.25378323 31.1108799 6.46552181
9.19822121 31.15128708 6.4296279
9.12841797 31.24313545 6.19909716
9.08150387 31.25230598 6.30495787
9.23967838 31.12187958 6.46525288
9.10752583 31.23134804 6.30543518
9.19051647 31.15642357 6.46638393
9.13252735 31.21772766 6.27457905
9.1748991 31.1757431 6.43044615
9.26108265 31.12212563 6.472651
9.07953167 31.30922318 6.46178198
9.0532999 31.27734947 6.37618923
9.05040836 31.27930832 6.39784813
9.06885624 31.30633163 6.44823217
9.19159126 31.17676544 6.17375183
9.17068672 31.18933678 6.17433691
9.12822342 31.23586082 6.13914919
9.17255592 31.21079826 6.00884295
9.13682747 31.22740173 6.12948895
9.14909267 31.21497345 6.13290119
9.19363594 31.18997383 5.97653818
9.18177128 31.20136452 5.97963095
9.24715042 31.13602257 6.12600803
9.09602356 31.25750542 6.14061213
9.18526363 31.18390656 6.09766817
9.15602684 31.21054077 6.0776701
9.26165009 31.12258339 6.12839699
9.21718216 31.1619854 6.08206701
9.14413166 31.22601128 6.07435799
9.16585922 31.20850182 6.05629206
9.15226173 31.22403908 6.05725813
9.13823509 31.22697067 6.09043598
9.14248276 31.21675873 6.15005922
9.19082546 31.19059181 5.99164581
9.18809414 31.1979084 5.94395113
9.16499138 31.22382355 5.92309713
9.14696407 31.24000931 5.92064095
9.18568325 31.20281601 5.92118216
9.14610004 31.22079849 6.10796213
9.10660839 31.24392509 6.18519306
9.15822792 31.21762848 6.04211712
9.20462418 31.18208694 5.98762703
9.10527325 31.25367546 6.12893486
9.17278957 31.2110424 6.02406502
9.20175743 31.16781235 6.0794282
9.12156868 31.23359108 6.18551493
9.18429756 31.20580482 5.90600491
9.19769001 31.19562531 5.90735197
9.05884933 31.28230286 6.18214512
9.05677891 31.29138184 6.10194397
9.05322647 31.28886414 6.16798019
9.38055611 30.9889431 6.62477016
9.36540222 31.01645279 6.4793849
9.35499191 31.01867294 6.6614852
9.32458115 31.06443405 6.48775005
9.18785286 31.25652313 6.53532887
9.44818783 30.96132469 6.46276188
9.43308067 30.96876335 6.4569211
9.41835976 30.98205185 6.45995092
9.41213608 30.98803711 6.41859293
9.38990593 30.9983902 6.46793413
9.40162563 30.99650192 6.45858479
9.37880325 31.01169777 6.45699215
9.36465168 31.02266693 6.45780706
9.35589123 31.03651428 6.46869802
9.44868946 30.9601078 6.40409899
9.43542767 30.97037125 6.39950085
9.38969612 31.00472641 6.37035513
9.34946728 31.05352592 6.46891212
9.42787075 30.9743824 6.46990013
